ply
format ascii 1.0
comment VCGLIB generated
element vertex 765
property float x
property float y
property float z
element face 0
property list uchar int vertex_indices
end_header
0.02431439763980202 -0.046509552638929315 -0.08157396723045846
0.023371389538305642 -0.04738051601248303 -0.07801378606300555
0.02241022438152886 -0.048210134963618714 -0.0743810214608437
0.02143176544156066 -0.048997664368691386 -0.0706789361975606
0.020436891522930208 -0.049742396906852185 -0.06691085530721112
0.019426496173307183 -0.050443663695329564 -0.06308016309793292
0.01840148688096036 -0.05110083489018765 -0.05919030011232401
0.01736278425969558 -0.051713320252021446 -0.05524476003731399
0.016311321222004918 -0.05228056967608149 -0.05124708656630321
0.015248042141169678 -0.05280207368635129 -0.047200870216388455
0.014173902003070097 -0.05327736389313405 -0.04310974510353435
0.013089865548463057 -0.05370601341373767 -0.03897738567858571
0.011996906406498673 -0.05408763725588016 -0.03480750342705373
0.010896006220253539 -0.054421892663471055 -0.030603843535638667
0.009788153765066454 -0.05470847942445845 -0.02637018152848458
0.008674344060468178 -0.05494714014046487 -0.022110319876185815
0.007555577476502911 -0.0551376604579701 -0.01782808458059153
0.006432858835244396 -0.05527986926083314 -0.013527321738476188
0.005307196508313152 -0.05537363882398049 -0.009211894087160818
0.001334121043747804 0.052389964816962224 -0.010491223272545647
0.0003215393987920437 0.05219760912923173 -0.014831327179214076
-0.0006884970400897169 0.05195716160470773 -0.019155595082020603
-0.0016950811069849675 0.05166883820173547 -0.023460143132534635
-0.002697308736734834 0.05133289787846034 -0.027741105193743724
-0.00369427977692176 0.05094964236024409 -0.031994636312431164
-0.004685098796342851 0.050519415868669745 -0.036216916172526994
-0.005668875889242949 0.050042604812378426 -0.04040415252633128
-0.006644727474584923 0.049519637440015744 -0.04455258460052773
-0.007611777089639501 0.048950983455599596 -0.04865848647392856
-0.008569156177181696 0.0483371535966547 -0.05271817042391671
-0.00951600486558693 0.047678699175492875 -0.05672799023858015
-0.010451472741126186 0.046976211584050916 -0.06068434449156319
-0.011374719611766518 0.04623032176273094 -0.06458367977669355
-0.012284916261790891 0.04544169963372027 -0.06842249389948006
-0.013181245196559723 0.04461105349929965 -0.07219733902261447
-0.014062901376744983 0.04373912940568039 -0.07590482476265224
-0.014929092941377667 0.0428267104729417 -0.07954162123509116
-0.015779041919059038 0.04187461619167012 -0.08310446204511263
-0.016611984926696906 0.04088370168693263 -0.08659014722129967
-0.017427173855139443 0.03985485695024474 -0.08999554608969637
-0.01822387654109068 0.03878900604022299 -0.09331760008562832
-0.01900137742470419 0.03768710625264025 -0.09655332550075726
-0.019758978192264312 0.036550147260628954 -0.0996998161629037
-0.020495998403377846 0.0353791502258044 -0.10275424604623053
-0.021211776102112702 0.034175166881106896 -0.10571387180944268
-0.02190566841153469 0.03293927858618595 -0.10857603525972362
-0.02257705211110856 0.031672595356175344 -0.11133816574019588
-0.02322532419644455 0.030376254864731188 -0.11399778243876069
-0.023849902420887765 0.029051421422228423 -0.11655249661624345
-0.024450225818464004 0.027699284930033496 -0.1190000137518439
-0.02502575520771227 0.026321059811792495 -0.12133813560396375
-0.02557597367595154 0.024917983922694537 -0.12356476218456114
-0.02610038704354667 0.02349131743769 -0.12567789364525817
-0.026598524307756746 0.02204234171966234 -0.12767563207350838
-0.027069938065766925 0.020572358168569893 -0.12955618319720982
-0.02751420491652403 0.019082687052591276 -0.13131785799623355
-0.02793092584101495 0.017574666322324368 -0.13295907421942008
-0.028319726560646175 0.016049650409103715 -0.1344783578056807
-0.028680257873402778 0.014509009008515818 -0.13587434420792788
-0.02901219596748476 0.012954125850204697 -0.1371457796186457
-0.029315242712139183 0.011386397455072824 -0.13829152209599904
-0.029589125925426795 0.00980723188099357 -0.13931054258947057
-0.029833599618682715 0.008218047458161641 -0.1402019258641041
-0.030048444217451505 0.006620271515217461 -0.14096487132252453
-0.03023346675869835 0.005015339097289606 -0.14159869372399567
-0.03038850106411921 0.0034046916771065653 -0.1421028237998703
-0.03051340788939404 0.0017897758603356464 -0.14247680876487973
-0.03060807504924933 0.0001720420863116723 -0.1427203127238038
-0.030672417518217556 -0.001447056674677526 -0.1428331169731556
-0.03070637750700286 -0.0030660662263788077 -0.1428151201976104
-0.030709924514384677 -0.004683532452662469 -0.14266633856100214
-0.030683055354612413 -0.0062980026235391375 -0.14238690569180595
-0.030625794160266718 -0.007908026699931596 -0.14197707256311948
-0.030538192360584842 -0.009512158636029796 -0.14143720726725087
-0.03042032863526929 -0.011108957678059335 -0.14076779468511627
-0.030272308843821576 -0.012696989658296855 -0.139969436050743
-0.03009426593046431 -0.01427482828317014 -0.13904284841127038
-0.02988635980473715 -0.01584105641428613 -0.13798886398293245
-0.029648777197873743 -0.017394267341236093 -0.13680842940360188
-0.029381731495088752 -0.018933066045034926 -0.13550260488256521
-0.029085462543925637 -0.020456070451059814 -0.1340725632482944
-0.028760236438837117 -0.021961912670362824 -0.1325195888950688
-0.02840634528219201 -0.023449240228242633 -0.13084507662939449
-0.02802410692192305 -0.02491671727897199 -0.1290505304172563
-0.0276138646660511 -0.02636302580558975 -0.1271375620333283
-0.027175986974342696 -0.027786866803680005 -0.1251078896133557
-0.02671086712737706 -0.02918696144807508 -0.12296333611100835
-0.026218922873320675 -0.030562052241434504 -0.12070582766059194
-0.02570059605272599 -0.03191090414366826 -0.11833739184708725
-0.02515635220169157 -0.03323230568119026 -0.11586015588507104
-0.024586680133740137 -0.0345250700350052 -0.11327634470815519
-0.02399209150078985 -0.03578803610665211 -0.11058827897065858
-0.02337312033361327 -0.03702006956104689 -0.10779837296330746
-0.02273032256219678 -0.0382200638452872 -0.10490913244483654
-0.022064275516431052 -0.03938694118250484 -0.10192315239143716
-0.021375577407581368 -0.040519653539872795 -0.09884311466607558
-0.02066484679100307 -0.041617183569897694 -0.09567178560977294
-0.019932722010585054 -0.04267854552415222 -0.09241201355701144
-0.019179860625420195 -0.04370278613862657 -0.08906672627749831
-0.01840693881921749 -0.04468898548990425 -0.08563892834658417
-0.017614650792986568 -0.04563625782139271 -0.0821316984466989
-0.016803708141539864 -0.04654375233886721 -0.07854818660222783
-0.01597483921437259 -0.04741065397461301 -0.07489161135031203
-0.015128788461494418 -0.04823618411947978 -0.07116525685011396
-0.01426631576480038 -0.049019601322190784 -0.06737246993314418
-0.013388195755581827 -0.049760201955278506 -0.06351665709729931
-0.012495217118789868 -0.050457320847048896 -0.05960128144731006
-0.011588181884676826 -0.051110331879006356 -0.055629859584348074
-0.010667904708451333 -0.05171864854820319 -0.05160595844758475
-0.009735212138594393 -0.052281724494008176 -0.0475331921105386
-0.00879094187449356 -0.05279905398882126 -0.04341521853508949
-0.007835942014061738 -0.05327017239229368 -0.03925573628607372
-0.006871070292016716 -0.053694656568645444 -0.035058481209412136
-0.005897193309505227 -0.054072125266705434 -0.030827223076753566
-0.004915185755763728 -0.054402239462332795 -0.026565762199648492
-0.003925929622514812 -0.05468470266291203 -0.02227792601629266
-0.0029303134118048003 -0.05491926117364834 -0.017967565653906975
-0.0019292313379942441 -0.05510570432542401 -0.013638552469841553
-0.00092358252461771 -0.05524386466401126 -0.009294774574509168
-0.0037698213109203372 0.05254999781429749 -0.005725640352856478
-0.006528266377207534 0.052412383292677174 -0.00843562065650311
-0.009278014072936214 0.05222648403449018 -0.011135509270770488
-0.01201659470762638 0.05199246700546533 -0.013822881286195781
-0.014741548620512452 0.05171054238838766 -0.01649532303512025
-0.017450428389691852 0.05138096339432229 -0.01915043425952897
-0.02014080103028095 0.05100402603519255 -0.021785830266846495
-0.02281025017960455 0.05058006885791634 -0.0243991440717525
-0.025456378267456017 0.050109472640339686 -0.02698802852209361
-0.02807680866947901 0.04959266004924043 -0.029550158406981986
-0.030669187841736573 0.049030095260709415 -0.032083232545187405
-0.03323118743455053 0.04842228354324993 -0.03458497585194694
-0.03576050638371269 0.04776977080396996 -0.03705314138233626
-0.038254872977189484 0.04707314309827481 -0.03948551234936686
-0.04071204689546388 0.04633302610350045 -0.041879904114997056
-0.043129821223682176 0.045550084556960406 -0.04423416615226824
-0.04550602443379813 0.0447250216589108 -0.04654618397680425
-0.04783852233493462 0.04385857844096986 -0.04881388104593911
-0.05012521999021068 0.0429515331005592 -0.05103522062376718
-0.05236406359831261 0.042004700301964404 -0.05320820761044108
-0.0545530423381189 0.04101893044464307 -0.0553308903340737
-0.05669019017472279 0.039995108899436985 -0.057401362303635795
-0.05877358762522969 0.03893415521337489 -0.059417763921273965
-0.06080136348274388 0.03783702228377984 -0.06137828415251156
-0.06277169649699624 0.036704695502422745 -0.06328116215283236
-0.06468281701010307 0.035538191870491224 -0.06512468884918607
-0.06653300854598747 0.034338559085168266 -0.06690720847499493
-0.06832060935203496 0.03310687459864122 -0.06862712005728347
-0.07004401389159956 0.031844244650386336 -0.0702828788545949
-0.07170167428601908 0.030551803273597966 -0.0718729977444033
-0.07329210170484494 0.029230711276654716 -0.07339604855877514
-0.07481386770303783 0.02788215520053745 -0.0748506633670808
-0.07626560550392786 0.026507346253135614 -0.07623553570460355
-0.07764601122678735 0.025107519221398755 -0.07754942174594327
-0.07895384505791359 0.0236839313623106 -0.07879114142216012
-0.08018793236416936 0.02223786127368162 -0.07995957948065541
-0.08134716474798191 0.020770607745774234 -0.08105368648683778
-0.0824305010428519 0.019283488594792196 -0.08207247976667442
-0.08343696824847885 0.017777839479281757 -0.08301504428928154
-0.08436566240466303 0.016255012700507738 -0.08388053348876073
-0.08521574940319886 0.014716375987881862 -0.08466817002454367
-0.08598646573703045 0.013163311270534307 -0.0853772464795619
-0.08667711918599692 0.011597213436131777 -0.08600712599561436
-0.08728708943855092 0.010019489078056791 -0.08655724284536304
-0.08781582864889255 0.008431555232073493 -0.08702710294044158
-0.088262861929018 0.006834838103614656 -0.08741628427522177
-0.08862778777524102 0.005230771786832823 -0.08772443730583858
-0.08891027842880404 0.003620796976566311 -0.0879512852641335
-0.0891100801702553 0.002006359674376702 -0.08809662440623431
-0.08922701354732746 0.000388909889820154 -0.08816032419554812
-0.08926097353611276 -0.0012300996618811282 -0.0881423274200029
-0.08921192963539067 -0.002849214864597439 -0.08804265024343262
-0.08907992589402243 -0.004466981507308475 -0.08786138219105971
-0.08886508087138853 -0.006081946590205337 -0.08759868606908774
-0.08856758753090449 -0.007692659629704749 -0.08725479781847696
-0.08818771306671035 -0.009297673961203304 -0.0868300263030333
-0.08772579866368978 -0.010895548038401705 -0.08632475303200195
-0.08718225919103444 -0.012484846728031932 -0.08573943181741417
-0.08655758282962842 -0.014064142598824644 -0.0850745883664953
-0.08585233063358784 -0.015632017203558925 -0.08433081980949984
-0.085067136026349 -0.017187062353043004 -0.08350879416339804
-0.0842027042317583 -0.018727881380881772 -0.08260924973189522
-0.08325981164067406 -0.020253090397894996 -0.08163299444232314
-0.0822393051136499 -0.021761319535059675 -0.08058090511999873
-0.08114210122032549 -0.023251214173860262 -0.07945392670070191
-0.07996918541620796 -0.02472143616294149 -0.07825307138198002
-0.07872161115758337 -0.02617066501997125 -0.07697941771404078
-0.07740049895535336 -0.027597599117634004 -0.07563410963105076
-0.07600703536864623 -0.02900095685268955 -0.07421835542370898
-0.07454247193910696 -0.030379477797047045 -0.07273342665401848
-0.07300812406682287 -0.03173192382982071 -0.07118065701323087
-0.07140536982889513 -0.03305708024935006 -0.06956144112398939
-0.06973564874171627 -0.034353756864186236 -0.06787723328774614
-0.06800046046806604 -0.035620789062064576 -0.06612954617857876
-0.06620136347018715 -0.03685703885590287 -0.06431994948457993
-0.06433997361004945 -0.038061395905886496 -0.062450068498039
-0.06241796269806093 -0.03923277851672191 -0.060521582655683435
-0.06043705699152858 -0.04037013460916305 -0.05853622403028964
-0.05839903564421717 -0.04147244266493823 -0.05649577577501891
-0.05630572910839967 -0.04253871264422824 -0.05440207052187564
-0.05415901749083318 -0.043567986874872476 -0.052256988735725596
-0.051960828864138234 -0.044559340912503624 -0.05006245702535346
-0.04971313753509681 -0.04551188437083905 -0.047820446413075764
-0.04741796227142573 -0.0464247617213826 -0.04553297056446405
-0.04507736448861687 -0.047297153061819024 -0.043202083979767734
-0.04269344639847337 -0.048128274852410606 -0.04082988014866118
-0.040268349121004805 -0.048917380619734635 -0.03841848966997263
-0.03780425076137637 -0.04966376162712985 -0.035970078338083133
-0.03530336445364041 -0.0503667475112493 -0.03348684519771488
-0.03276793637300621 -0.051025706884148474 -0.03097102056885544
-0.0302002437184339 -0.051640047900367345 -0.028424864043592027
-0.02760259266736467 -0.05220921878849732 -0.02585066245665536
-0.02497731630442334 -0.052732708346755766 -0.023250727831494945
-0.02232677252595483 -0.05321004640212264 -0.02062739530373163
-0.019653341922275316 -0.05364080423262723 -0.017983021023851374
-0.016959425639541337 -0.054024594952405476 -0.015319980041025024
-0.014247443223156226 -0.05436107385918217 -0.012640664169953807
-0.011519830444651297 -0.054649938743865895 -0.00994747984265686
-0.008779037113993833 -0.05489093016197857 -0.007242845947130581
-0.006027524879285852 -0.05508383166667599 -0.0045291916548199996
-0.0057973944844627 0.05267916248333825 0.0020681152747549065
-0.00924939476587157 0.05258573025362811 0.002024080610677991
-0.012690253690720287 0.05244385759548913 0.001980743237838415
-0.016116880845825497 0.05225367193208586 0.0019381420797698896
-0.019526198600291526 0.052015344078989195 0.0018963153987736018
-0.02291514486968982 0.05172908809075795 0.001855300761552863
-0.0262806758662751 0.05139516106868548 0.0018151350054725131
-0.02961976883276844 0.05101386292988373 0.0017758542054733802
-0.03292942475725171 0.05058553613791214 0.0017374936416715112
-0.03620667106673522 0.050110565395193436 0.0017000877676712778
-0.03944856429697902 0.04958937729749254 0.0016636701796208131
-0.04265219273617025 0.049022439950768854 0.0016282735860375767
-0.045814679040081976 0.0484102625507461 0.001593929778431144
-0.04893318281636471 0.047753394925577314 0.0015606696027496078
-0.05200490317564953 0.04705242704201585 0.0015285229316752418
-0.055027081247171525 0.04630798847553567 0.0014975186377942976
-0.05799700265665415 0.04552074784487713 0.001467684567665046
-0.0609119999642291 0.0446914122115259 0.0014390475168073423
-0.06376945506020179 0.0438207264446646 0.0014116332056361867
-0.06656680151651101 0.042909472552167184 0.0013854662563608897
-0.06930152689177045 0.041958468978237365 0.0013605701708705945
-0.07197117498782232 0.04096856986832152 0.0013369673096260163
-0.07457334805577569 0.039940664301956544 0.001314678871576355
-0.0771057089495486 0.038875675494241646 0.0012937248751194268
-0.07956598322497983 0.03777455996665105 0.001274124140122105
-0.08195196118262475 0.03663830668793275 0.0012558942710172247
-0.08426149985240038 0.03546793618586452 0.0012390516409921338
-0.08649252491829772 0.034264499630665184 0.0012236113772830864
-0.08864303258143207 0.03302907789088437 0.0012095873475886894
-0.0907110913597583 0.03176278056261858 0.001196992147614608
-0.09269484382283474 0.030466744972925626 0.00118583708976071
-0.0945925082600774 0.02914213515833242 0.0011761321929608163
-0.09640238028100631 0.027790140819353656 0.0011678861736841761
-0.09812283434604661 0.02641197625196027 0.0011611064381067601
-0.09975232522650981 0.0250088792569575 0.0011557990754593858
-0.10128938939244327 0.023582110028252064 0.0011519688525586697
-0.10273264632710224 0.02213295002100684 0.0011496192095256988
-0.10408079976686324 0.02066270080069981 0.001148752256696283
-0.10533263886546537 0.01917268287412085 0.0011493687727255528
-0.10648703928153389 0.017664234503356368 0.0011514682038886073
-0.10754296418840933 0.016138710503826946 0.001155048664577846
-0.10849946520537512 0.014597481027457624 0.0011601069389965276
-0.10935568324944728 0.013041930332073674 0.001166638484047044
-0.11011084930696113 0.011473455538127111 0.001174637433411313
-0.1107642851242624 0.009893465373870624 0.0011840966028196195
-0.11131540381688167 0.008303378910105996 0.0011950074965031796
-0.11176371039664583 0.006704624285643217 0.001207360314824629
-0.11210880221625237 0.005098637424615275 0.0012211439630795866
-0.11235036933090788 0.0034868607468005017 0.0012363460614613782
-0.11248819477670532 0.0018707418721108297 0.0012529529561799814
-0.11252215476549063 0.00025173232040954737 0.001270949731725202
-0.11245221879604324 -0.0013687137921736395 0.0012903202242630614
-0.11227844968147076 -0.0029891410592595095 0.0013110470361533733
-0.11200100349279334 -0.004608094091394945 0.0013331115515754618
-0.11162012941876816 -0.006224118823213408 0.0013564939532479936
-0.1111361695420802 -0.007835763819406172 0.0013811732402278989
-0.1105495585321 -0.009441581578331385 0.0014071272467724078
-0.10986082325448479 -0.011040129832090035 0.0014343326622472457
-0.10907058229797309 -0.012629972841901326 0.00146276505206312
-0.10817954541879832 -0.014209682687613835 0.0014923988796216865
-0.10718851290321985 -0.015777840550194374 0.0015232075292512892
-0.10609837484874482 -0.01733303798604268 0.0015551633301118684
-0.1049101103646854 -0.01887387819198738 0.0015882375810475726
-0.10362478669277023 -0.02039897725982707 0.0016224005763647495
-0.10224355824859939 -0.02190696541928982 0.0016576216325121644
-0.10076766558480418 -0.023396488268294588 0.0016938691156394832
-0.09919843427684263 -0.024866207989409736 0.0017311104700092673
-0.09753727373243182 -0.026314804551415962 0.0017693122472369636
-0.09578567592568579 -0.02774097689489458 0.0018084401363326278
-0.09394521405709674 -0.029143444100776128 0.0018484589945173945
-0.0920175411405621 -0.0305209465408001 0.0018893328787870272
-0.09000438851872763 -0.031872247008852016 0.001931025078194183
-0.08790756430797902 -0.03319613183216227 0.0019734981468204128
-0.08572895177447895 -0.034491411961368325 0.0020167139374082784
-0.08347050764270883 -0.03575692403846135 0.002060633635623369
-0.08113426033803305 -0.03699153144165819 0.0021052177949154693
-0.07872230816486565 -0.0381941253062601 0.002150426371947533
-0.07623681742207457 -0.0393636255205814 0.002196218762560683
-0.0736800204573167 -0.04049898169605369 0.002242553838242901
-0.07105421366205122 -0.04159917411063394 0.002289389983068665
-0.06836175540903158 -0.042663214624669696 0.0023366851310763696
-0.06560506393412933 -0.04369014756839822 0.0023843968040499334
-0.0627866151643913 -0.04467905060028301 0.0024324821496706835
-0.05990894049428174 -0.04562903553541627 0.002480897980005235
-0.05697462451210622 -0.04653924914324376 0.002529600810294805
-0.05398630267865902 -0.04740887391389521 0.0025785468980111244
-0.05094665896018004 -0.04823712879243213 0.002627692282143858
-0.047858423417745655 -0.049023269880353715 0.002676992822684265
-0.044724369755260125 -0.04976659110373038 0.0027264042402696145
-0.04154731282824866 -0.05046642484736535 0.002775882155952774
-0.038330106115690106 -0.051122142554414336 0.002825382131061236
-0.03507563915716037 -0.051733155290924863 0.002874859707109779
-0.031786834957587225 -0.052298914274788375 0.0029242704457309392
-0.028466647361948986 -0.052818911368629706 0.0029735699685873957
-0.025118058402273283 -0.05329267953619157 0.003022713997230455
-0.0217440756193204 -0.05371979326180394 0.0030716583928688088
-0.018347729361355345 -0.05409986893256164 0.0031203591960118652
-0.01493207006243537 -0.054432565182866946 0.0031687726659520407
-0.011500165502657877 -0.05471758320102763 0.0032168553200505436
-0.008055098052828214 -0.05495466699763523 0.003264563972791386
-0.003974134439263588 0.05272812231065656 0.009913093860551728
-0.006802467210482643 0.052651437364847765 0.012552526250436395
-0.009621856337207363 0.05252625297565858 0.015183199790543576
-0.012429769580390309 0.052352681577656955 0.017802751737044768
-0.015223685008067941 0.05213087906428359 0.02040882933498927
-0.018001093260438118 0.05186104464783587 0.02299909193143506
-0.020759499803645717 0.05154342068054507 0.025571213077710087
-0.02349642717025241 0.05117829243690726 0.028122882618916028
-0.02620941718437815 0.050765987857463585 0.03065180876879777
-0.028896033169515962 0.05030687725425985 0.03315572016811507
-0.03155386213703701 0.04980137297825021 0.035632367924667625
-0.034180516953420316 0.04924992904894346 0.03807952763314134
-0.036773638484260796 0.04865304074662462 0.04049500137296172
-0.039330897713129705 0.048011244167518126 0.04287661968235988
-0.04184999783338462 0.04732511574229215 0.045222243506878236
-0.044328676311050204 0.04659527171833642 0.04752976612056584
-0.04676470691691681 0.04582236760627855 0.049797115018137814
-0.04915590172603202 0.045007097591236146 0.05202225377639942
-0.05150011308278903 0.04415019390933325 0.05420318388326297
-0.053795235529847225 0.04325242619004123 0.05633794653271479
-0.056039207699152015 0.042314600764934845 0.05842462438412004
-0.0582300141633562 0.041337559943484106 0.06046134328428554
-0.060365687245979245 0.04032218125653269 0.06244627395073346
-0.06244430878867927 0.039269376668142154 0.06437763361467445
-0.0644640118740502 0.038180091756509806 0.0662536876222045
-0.06642298250239663 0.037055304864696194 0.0680727509922871
-0.06831946122098073 0.035896026221924546 0.06983318993012186
-0.07015174470427776 0.03470329703624179 0.07153342329454004
-0.07191818728382059 0.03347818855935572 0.07317192401810906
-0.07361720242625963 0.032221801124488594 0.07474722047867068
-0.0752472641583104 0.030935263158110925 0.07625789782108099
-0.07680690843730902 0.029619730166443387 0.07770259922796477
-0.07829473446614452 0.028276383697637048 0.07908002713834342
-0.07970940595138709 0.026906430280563807 0.08038894441304138
-0.08104965230348234 0.02551110034117055 0.08162817544582489
-0.08231426977793337 0.024091647097370033 0.08279660721927454
-0.0835021225564458 0.022649345433461095 0.08389319030444388
-0.08461214376706512 0.021185490755089215 0.08491693980340562
-0.08564333644238926 0.01970139782577575 0.08586693623383948
-0.08659477441499666 0.018198399586060936 0.08674232635486666
-0.08746560314928499 0.01667784595632106 0.08754232393338968
-0.08825504050897386 0.015141102624335245 0.08826621045024877
-0.08896237745958176 0.013589549818690701 0.08891333574556132
-0.08958697870524653 0.012024581069128102 0.08948311860266375
-0.09012828325931738 0.01044760195494053 0.08997504727013246
-0.09058580494820609 0.00886002884255012 0.09038867992141417
-0.09095913284804455 0.007263287613396136 0.09072364505165305
-0.09124793165375673 0.0056588123832772095 0.09097964181135863
-0.09145194198021354 0.004048044214297849 0.0911564402766141
-0.09157098059519991 0.002432429820576095 0.09125388165558299
-0.09160494058398522 0.0008134202688748131 0.0912718784311282
-0.0915537914453489 -0.0008075303246762918 0.09121041443941579
-0.09141757911897512 -0.002428966100597575 0.09106954488443242
-0.09119642594419206 -0.004049430763642025 0.09084939628840388
-0.09089053055009258 -0.005667468890769283 0.09055016637815898
-0.09050016767713517 -0.007281627238336266 0.09017212390754074
-0.09002568793038539 -0.008890456047330395 0.08971560841602484
-0.08946751746461927 -0.010492510345473008 0.0891810299237615
-0.08882615760157182 -0.012086351245023707 0.08856886856331536
-0.08810218437967397 -0.013670547235119722 0.0878796741484335
-0.08729624803668262 -0.015243675467489804 0.08711406568022935
-0.08640907242566871 -0.01680432303438778 0.0862727307912258
-0.08544145436488727 -0.018351088237597978 0.0853564251277569
-0.08439426292211379 -0.019882581847372814 0.08436597167128293
-0.08326843863408949 -0.02139742835017185 0.08330225999922804
-0.0820649926617767 -0.02289426718408154 0.08216624548600499
-0.08078500588218311 -0.024371753960806198 0.0809589484449439
-0.07942962791757002 -0.02582856167313257 0.07968145321189621
-0.07800007610291741 -0.02726338188678361 0.07833490717133658
-0.0764976343925724 -0.02867492591559084 0.07692051972583767
-0.07492365220706343 -0.03006192597893009 0.0754395612098431
-0.07327954322111616 -0.031423136340380665 0.07389336174871454
-0.07156678409395907 -0.03275733442658567 0.07228331006407739
-0.06978691314305932 -0.034063321925308296 0.07061085222653801
-0.06794152896248071 -0.0353399258616979 0.06887749035689326
-0.06603228898710341 -0.036585999651799435 0.06708478127699787
-0.06406090800399633 -0.037800424132359595 0.06523433511150256
-0.062029156612278126 -0.03898210856600525 0.06332781384171779
-0.05993885963285057 -0.040129991620891106 0.06136692981290243
-0.05779189446943279 -0.04124304232393646 0.05935344419631813
-0.05559018942236781 -0.04232026098679565 0.05728916540743026
-0.053335721956716584 -0.04336068010372957 0.055175947481676736
-0.05103051692619421 -0.04436336522057276 0.05301568840926276
-0.04867664475454441 -0.04532741577401485 0.05081032843047798
-0.0462762195759849 -0.04625196590044301 0.04856184829306635
-0.04383139733639411 -0.047136185213618904 0.04627226747321411
-0.041344373856945026 -0.04797927955049132 0.04394364236175414
-0.038817382861924474 -0.048780491684475194 0.041578064417214844
-0.0362526939725102 -0.04953910200555577 0.039177658287373365
-0.033652610668306646 -0.05025442916660768 0.03674457990099959
-0.03101946821847085 -0.05092583069534792 0.034281014531505026
-0.028355631584286795 -0.05155270357137342 0.03178917483423606
-0.0256634932950712 -0.052134484767764847 0.029271298859173584
-0.0229454712993196 -0.05267065175677012 0.026729648040824987
-0.020204006793021582 -0.05316072297911365 0.024166505167112655
-0.017441562027096822 -0.053604258276509546 0.02158417232908446
-0.014660618095920152 -0.05400085928699055 0.018984968853286745
-0.011863672708922446 -0.054350169802697496 0.016371229218657204
-0.009053237947268944 -0.054651876089807976 0.013745300959808967
-0.0062318380076291004 -0.054905707170316925 0.011109542558588207
0.0010035354577406065 0.05267817630630015 0.014812780225774678
-0.0001221268691906285 0.0525844067431528 0.01912820787709002
-0.0012448455104491544 0.05244219794028976 0.023428970719205394
-0.0023636120944144205 0.05225167762278453 0.027711206014799677
-0.003477421799012704 0.05201301690677811 0.031971067667098466
-0.00458527425419978 0.05172643014579072 0.03620472967425253
-0.005686174440444908 0.05139217473819982 0.04040838956566755
-0.006779133582409299 0.051010550896057334 0.04457827181719957
-0.00786317003701633 0.050581901375453715 0.04871063124214818
-0.00893731017511592 0.050106611168670954 0.05280175635500231
-0.010000589255951162 0.04958510715840115 0.056847972704917066
-0.011052052293641838 0.0490178577343411 0.06084564617592788
-0.012090754914906604 0.04840537237250731 0.06479118625093787
-0.013115764207253423 0.04774820117764923 0.06868104923654676
-0.014126159556876456 0.047046934389171846 0.07251174144582499
-0.015121033475506909 0.04630220185101105 0.07627982233617447
-0.01609949241547512 0.04551467244593837 0.0799819075994576
-0.01706065757225189 0.044685053494802694 0.08361467220161942
-0.01800366567374826 0.043814090121248976 0.0871748533690723
-0.018927669755664758 0.042902564582484086 0.09065925351916168
-0.019831839922193777 0.04195129556669129 0.09406474313208002
-0.020715364091391925 0.04096113745772402 0.09738826356165056
-0.021577448724552757 0.03993297956773959 0.10062682978245517
-0.022417319538924865 0.0388677453384621 0.10377753307084006
-0.023234222203135257 0.03776639151179155 0.10683754361739078
-0.02402742301469333 0.03662990727050466 0.10980411306853036
-0.024796209558966952 0.0354593133498186 0.1126745769949573
-0.025539891349038918 0.03425566112061603 0.11544635728470765
-0.02625780044586886 0.03302003164515451 0.11811696445869034
-0.026949292058203855 0.031753534706108734 0.12068399990661695
-0.02761374512169874 0.030457307809817223 0.1231451580413176
-0.02825056285672609 0.029132515164629245 0.12549822836950794
-0.028859173304374878 0.027780346635269113 0.12774109747714735
-0.029439029840156252 0.026402016674157126 0.12987175092760517
-0.02998961166495531 0.02499876323064718 0.13188827507093068
-0.03051042427278759 0.023571846639160468 0.13378885876260047
-0.031000999894940585 0.022122548487214 0.13557179499020133
-0.031460897920100865 0.020652170464360662 0.13723548240658628
-0.031889705290089956 0.019162033193074537 0.13877842676812688
-0.03228703687085315 0.01765347504263169 0.14019924227677083
-0.03265253579836837 0.016127850927051504 0.14149665282469887
-0.03298587379916414 0.014586531088178414 0.14266949314046307
-0.033286751485158965 0.013030899864996922 0.1437167098355773
-0.033554898622557255 0.011462354450285222 0.14463736235061989
-0.033790074374560254 0.009882303635724168 0.14543062379999863
-0.03399206751767394 0.008292166546588707 0.1460957817146194
-0.03416069663141989 0.00669337136715809 0.14663223868179165
-0.03429581026127828 0.005087354057989822 0.14703951288179534
-0.03439728705471706 0.0034755570662092796 0.14731723852062834
-0.034465035870184936 0.001859428029973418 0.1474651661585448
-0.03449899585897024 0.00024041847827213636 0.14748316293409
-0.03449913651985241 -0.0013800174727648614 0.14737121268343
-0.03446545772649665 -0.003000424425884962 0.1471294159548691
-0.0343979897275674 -0.004619347009880072 0.14675798991854247
-0.03429679311956043 -0.006235331186730697 0.1462572681713642
-0.03416195879237804 -0.007846925557552628 0.1456277004374069
-0.03399360784769612 -0.009452682666173275 0.144869852163981
-0.03379189149019648 -0.011051160299166788 0.1439844040137775
-0.033556990891762103 -0.01264092278118054 0.14297215125352966
-0.03328911702875735 -0.01422054226438928 0.1418340030397427
-0.032988510492539126 -0.01578860001091905 0.1405709816021335
-0.03265544127336942 -0.01734368766708899 0.1391842213255132
-0.03229020851792303 -0.01888440852832653 0.13767496773093757
-0.03189314026060856 -0.020409378793619908 0.1360445763570404
-0.03146459312894371 -0.021917228808381414 0.13429451154255398
-0.031004952023249665 -0.02340660429460491 0.13242634511111076
-0.03051462977095228 -0.02487616756721288 0.13044175495950772
-0.029994066755800398 -0.026324598735500505 0.12834252355070014
-0.029443730522334493 -0.027750596888597753 0.12613053631287977
-0.028864115355960732 -0.029152881263884538 0.12380777994607431
-0.02825574183900766 -0.030530192397309953 0.12137634063778936
-0.027619156383164447 -0.03188129325458187 0.11883840218929581
-0.02695493073872021 -0.033204970342211426 0.11619624405424499
-0.02626366148104553 -0.034500034797414245 0.11345223929137342
-0.025545969474777407 -0.03576532345588944 0.1106088524331365
-0.024802499316188463 -0.03699969989651769 0.10766863727218415
-0.02403391875424192 -0.03820205546203965 0.10463423456766816
-0.023240918090851638 -0.03937131025479835 0.1015083696734395
-0.0224242095608863 -0.04050641410665119 0.09829385009026745
-0.021584526692474536 -0.04160634752218001 0.09499356294427812
-0.02072262364818534 -0.042670122594352794 0.09161047239387714
-0.019839274547675794 -0.04369678389181384 0.08814761696748608
-0.018935272772414087 -0.044685409317006215 0.08460810683448275
-0.018011430253102725 -0.04563511093435503 0.08099512101179776
-0.017068576740441606 -0.04654503576776838 0.07731190450867498
-0.016107559059885947 -0.04741436656673921 0.07356176541216088
-0.015129240351068734 -0.04824232254036021 0.06974807191594104
-0.014134499292570287 -0.0490281600585925 0.06587424929519099
-0.013124229312731729 -0.04977117332015813 0.061943776830159884
-0.012099337787220799 -0.05047069498645674 0.05796018468124903
-0.011060745224070813 -0.05112609678093682 0.053927050718392266
-0.01000938443692497 -0.05173679005338329 0.049847997307586475
-0.008946199707228089 -0.05230222630861477 0.04572668805745713
-0.007872145936118773 -0.05282189769911537 0.04156682452878247
-0.006788187786783247 -0.053295337481158805 0.03737214290993012
-0.005695298818041594 -0.053722120434015024 0.03314641066119364
-0.004594460609944265 -0.054101863241862974 0.02889342313104165
-0.0034866618821642356 -0.054434224838066314 0.02461700014731902
-0.002372897605976917 -0.05471890671150294 0.020320982586462605
-0.001254168110624908 -0.05495565317467333 0.01600922892381116
0.007234314490671469 0.05254840214633092 0.014895660713123027
0.008239963304047996 0.052410241807743674 0.019239438608455384
0.009241045377858558 0.052223798655968004 0.023568451792520838
0.010236661588568572 0.051989240145231694 0.027878812154906524
0.011225917721817493 0.051706776944652456 0.03216664833826238
0.012207925275558985 0.051376662749025095 0.036428109215367425
0.013181802258070465 0.050999194050965105 0.040659367348025964
0.014146673980115496 0.05057470987461334 0.044856622424687576
0.01510167384054731 0.05010359147114093 0.04901610467370332
0.01604594410464815 0.04958626197632784 0.05313407824915246
0.01697863667450509 0.04902318603052285 0.0572068445861986
0.01789891385073059 0.04841486936132601 0.061230745722961964
0.01880594908484362 0.04776185832936856 0.06520216758592393
0.01969892772163558 0.047064739437598174 0.06911754323591317
0.020577047730854132 0.046324138804510445 0.07297335607175805
0.02143952042754817 0.04554072160179944 0.07676614298872783
0.022285571180426348 0.04471519145693267 0.08049249748892592
0.023114440107593618 0.043848289821186874 0.0841490727408417
0.023925382759040312 0.04294079530371237 0.08773258458531275
0.024717670785271244 0.041993522972223904 0.09123981448519805
0.025490592591473946 0.04100732362094624 0.09466761241611217
0.0262434539766388 0.03998308300647188 0.09801289969562531
0.026975578757056817 0.038921721052217355 0.1012726717483868
0.027686309373635122 0.03782419102219245 0.10444400080468946
0.028375007482484803 0.0366914786648245 0.10752403853005102
0.029041054528250523 0.03552460132760687 0.1105100185834504
0.02968385229966702 0.03432460704336655 0.11339925910192135
0.030302823466843598 0.03309257358897178 0.11618916510927242
0.030897412099793888 0.03182960751732485 0.11887723084676907
0.03146708416774532 0.030536843163509922 0.1214610420236849
0.03201132801877973 0.029215441625987933 0.12393827798570109
0.03252965483937442 0.027866589723754158 0.1263067137992058
0.0330215990934308 0.02649149893039475 0.12856422224962222
0.03348671894039643 0.025091404285999673 0.13070877575196954
0.03392459663210485 0.02366756328790941 0.13273844817194216
0.034334838887976796 0.02222125476129165 0.13465141655587018
0.03471707724824576 0.020753777710562294 0.13644596276800836
0.035070968404890865 0.019266450152682486 0.13812047503368266
0.035396194509979384 0.017760607933379476 0.13967344938690826
0.0356924634611425 0.01623760352735459 0.14110349102117908
0.03595950916392749 0.014698804823555756 0.14240931554221575
0.0361970917707909 0.013145593896605792 0.14358975012154632
0.036404997896518056 0.011579365765489805 0.14464373454988425
0.036583040809875324 0.01000152714061652 0.14557032218935687
0.036731060601323036 0.008413495160379 0.14636868082373014
0.03684892432663859 0.006816696118349461 0.14703809340586474
0.03693652612632047 0.005212564182251259 0.14757795870173335
0.03699378732066616 0.0036025401058588018 0.14798779183041982
0.03702065648043843 0.0019880699349821324 0.148267224699616
0.03701710947305661 0.00037060370869847203 0.14841600633622426
0.036983149484271303 -0.00124840584300281 0.14843400311176946
0.03691880701530308 -0.002867504603992008 0.14832119886241768
0.03682413985544779 -0.004485238378015982 0.1480776949034936
0.036699233030172966 -0.006100154194786902 0.14770370993848417
0.0365441987247521 -0.007710801614969943 0.14719957986260954
0.03635917618350525 -0.009315734032897796 0.1465657574611384
0.03614433158473646 -0.010913509975841977 0.14580281200271797
0.03589985789148054 -0.012502694398673905 0.14491142872808443
0.03562597467819293 -0.01408185997275316 0.1438924082346129
0.03532292793353851 -0.01564958836788503 0.14274666575725958
0.034990989839456525 -0.01720447152619615 0.14147523034654175
0.03463045852669992 -0.018745112926784054 0.14007924394429458
0.0342416578070687 -0.020270128840004707 0.13855996035803395
0.03382493688257778 -0.021778149570271615 0.13691874413484742
0.03338067003182067 -0.023267820686250232 0.1351570693358237
0.03290925627381049 -0.02473780423734268 0.13327651821212225
0.03241111900960043 -0.026186779955370332 0.13127877978387206
0.031886705642005284 -0.02761344644037487 0.129165648323175
0.03133648717376602 -0.02901652232947284 0.12693902174257762
0.030760957784517755 -0.030394747447713824 0.12460089989045779
0.030160634386941512 -0.03174688393990876 0.12215338275485732
0.029536056162498294 -0.033071717382411533 0.11959866857737454
0.028887784077162314 -0.034368057873855676 0.11693905187880978
0.028216400377588435 -0.03563474110386629 0.11417692139833747
0.027522508068166456 -0.03687062939878723 0.11131475794805655
0.026806730369431597 -0.03807461274348474 0.1083551321848444
0.02606971015831806 -0.0392456097783093 0.10530070230151756
0.025312109390757936 -0.040382568770320586 0.10215421163937113
0.024534608507144427 -0.04148446855790333 0.0989184862242422
0.023737905821193197 -0.04255031946792507 0.09559643222831025
0.022922716892750654 -0.043579164204612976 0.09219103335991352
0.022089773885112796 -0.044570078709350446 0.08870534818372652
0.021239824907431423 -0.045522172990622035 0.08514250737370503
0.020373633342798726 -0.04643459192336073 0.08150571090126608
0.019491977162613475 -0.04730651601697999 0.07779822516122833
0.018595648227844645 -0.04813716215140061 0.07402338003809393
0.017685451577820276 -0.04892578428041127 0.07018456591530743
0.01676220470717994 -0.049671674101731254 0.06628523063017705
0.015826736831640677 -0.05037416169317322 0.06232887637719397
0.014879888143235452 -0.05103261611433504 0.058319056562530565
0.013922509055693259 -0.051646445973279935 0.05425937261254241
0.012955459440638686 -0.052215099957696076 0.050153470739141615
0.011979607855296706 -0.052738067330058765 0.04600503866494514
0.010995830762396616 -0.053214878386350084 0.04181780231114088
0.010005011742975517 -0.05364510487792443 0.03759552245104502
0.009008040702788586 -0.05402836039614068 0.03334199133235756
0.008005813073038727 -0.05436430071941581 0.029061029271148498
0.0069992290061434755 -0.05465262412238807 0.024756481220634466
0.005989192567261723 -0.05489307164691207 0.02043221331782797
0.004976610922305955 -0.05508542733464256 0.01609210941115951
0.012338256845339613 0.05238836914899565 0.010130077793433861
0.015089769080047576 0.05219546764429823 0.012843732085744422
0.017830562410705058 0.051954476226185556 0.015548365981270722
0.020558175189209986 0.051665611341501834 0.01824155030856767
0.02327015760559511 0.05132913243472514 0.02092086617963891
0.025964073888329074 0.05094534171494689 0.023583907162465244
0.028637504492008567 0.0505145838844423 0.02622828144234548
0.0312880482704771 0.05003724582907543 0.02885161397010881
0.0339133246334184 0.049513756270816986 0.031451548595269205
0.03651097568448766 0.048944585382687006 0.03402575018220589
0.03907866833905997 0.048330244366468135 0.03657190670746931
0.0416140964196942 0.04767128499356896 0.039087731336328764
0.044114982727430134 0.04696829910944951 0.041570964476696996
0.046579081087058556 0.0462219181020543 0.044019375808586475
0.04900417836452713 0.04543281233473027 0.04643076628727505
0.051388096454670636 0.044601690544138685 0.048802970118381604
0.053728694237479516 0.043729299203702256 0.05113385670307793
0.056023869501150576 0.04281642185315871 0.05342133255168963
0.05827156083019198 0.04186387839482329 0.05566334316396731
0.06046974945688696 0.04087252435719213 0.057857874874339466
0.06261646107445341 0.03984325012654791 0.06000295666048949
0.06470976761027093 0.03877698014725789 0.06209666191363277
0.06674778895758234 0.03767467209148271 0.06413711016890351
0.0687286946641147 0.036537315999041566 0.06612246879429733
0.0706507055761032 0.03536593338820616 0.0680509546366529
0.07251209543624089 0.03416157633822254 0.0699208356231938
0.07431119243411981 0.03292532654438424 0.07173043231719266
0.07604638070777 0.031658294346505904 0.07347811942636003
0.0777161017949489 0.03036161773166971 0.07516232726260327
0.07931885603287663 0.029036461312140376 0.07678154315184475
0.0808532039051607 0.027684015279366717 0.07833431279263235
0.08231776733469998 0.026305494335009203 0.07981924156232287
0.08371123092140711 0.024902136599953675 0.08123499576966466
0.08503234312363711 0.023475202502290918 0.08258030385265465
0.0862799173822617 0.02202597364526115 0.08385395752059391
0.08745283318637924 0.020555751656179923 0.0850548128393158
0.08855003707970364 0.019065857017379336 0.0861817912586126
0.08957054360672781 0.017557627880214657 0.08723388058093702
0.09051343619781205 0.016032418863201434 0.0882101358705091
0.09137786799240274 0.01449159983536267 0.08910968030201193
0.09216306259964159 0.012936554685878588 0.08993170594811373
0.09286831479568217 0.011368680081144309 0.09067547450510918
0.09349299115708819 0.009789384210351597 0.09134031795602805
0.09403653062974353 0.008200085520721372 0.09192563917061583
0.0944984450327641 0.0066022114435229685 0.09243091244164718
0.09487831949695824 0.004997197112024412 0.09285568395709086
0.09517581283744228 0.0033864840725250007 0.09319957220770164
0.09539065786007618 0.0017715189896281383 0.0934622683296736
0.09552266160144442 0.00015375234691710317 0.0936435363820465
0.09557170550216651 -0.0014653628557992075 0.0937432135586168
0.0955377455133812 -0.0030843724075004897 0.09376121033416202
0.09542081213630906 -0.004701822192057038 0.09369751054484819
0.0952210103948578 -0.0063162594942466465 0.09355217140274738
0.09493851974129477 -0.00792623430451316 0.09332532344445248
0.09457359389507175 -0.00953030062129499 0.09301717041383567
0.0941265606149463 -0.011127017749753828 0.09262798907905546
0.09359782140460467 -0.012714951595737125 0.09215812898397692
0.09298785115205067 -0.014292675953812112 0.09160801213422824
0.0922971977030842 -0.015858773788214642 0.09097813261817578
0.09152648136925261 -0.017411838505562195 0.09026905616315756
0.09067639437071678 -0.018950475218188077 0.08948141962737462
0.0897477002145326 -0.020473301996962096 0.08861593042789542
0.08874123300890566 -0.021978951112472535 0.0876733659052883
0.08765789671403566 -0.023466070263454573 0.08665457262545165
0.08649866433022312 -0.02493332379136196 0.0855604656192693
0.08526457702396734 -0.02637939387999094 0.084392027560774
0.08395674319284112 -0.027802981739079087 0.08315030788455716
0.08257633746998161 -0.029202808770815943 0.08183642184321745
0.08112459966909158 -0.030577617718217796 0.08045154950569468
0.07960283367089871 -0.03192617379433504 0.07899693469738904
0.07801240625207283 -0.033247265791278305 0.07747388388301718
0.0763547458576533 -0.03453970716806668 0.07588376499320877
0.07463134131808873 -0.03580233711632155 0.07422800619589737
0.0728437405120412 -0.037034021602848605 0.07250809461360881
0.07099354897615684 -0.038233654388171556 0.07072557498779997
0.06908242846304999 -0.039400158020103083 0.06888204829144626
0.06711209544879762 -0.040532484801460184 0.06697917029112542
0.06508431959128345 -0.04162961773105523 0.06501865005988784
0.06300092214077656 -0.04269057141711732 0.06300224844224966
0.060863774304172676 -0.0437143929623234 0.06093177647268757
0.05867479556436636 -0.04470016281964475 0.058809093749054936
0.05643595195626447 -0.04564699561823953 0.056636106762381073
0.05414925430098839 -0.0465540409586502 0.05441476718455298
0.05181675639985187 -0.04742048417659114 0.0521470701154181
0.04944055318973594 -0.048245547074640745 0.04983505229088211
0.04702277886151764 -0.04902848862118079 0.047480790253610926
0.04456560494324326 -0.04976860561595514 0.045086398487980746
0.042071238349766456 -0.0504652333216503 0.04265402752095012
0.03954191940060427 -0.05111774606093027 0.04018586199056079
0.036979919807790335 -0.051725557778389754 0.03768411868380127
0.034387540635532766 -0.05228812256692077 0.035151044545595846
0.0317671102335098 -0.05280493515802002 0.03258891466070749
0.02912098214565831 -0.05327553137559668 0.030000030210366367
0.02645153299633473 -0.05369948855287289 0.02738671640546038
0.02376116035574561 -0.05407642591200263 0.02475132039814284
0.021052280586566198 -0.054406004906068 0.0220962091737341
0.01832732667368014 -0.05468792952314567 0.019423767424809647
0.015588746038989975 -0.05492194655217052 0.01673639540938435
0.012838998343261314 -0.05510784581035751 0.014036506795116994
0.010080553276974097 -0.05524546033197783 0.011326526491470344
0.014365830018881975 0.05225920447995489 0.0023363221658224765
0.01781089746871161 0.052022120683347294 0.002384030818563319
0.02124280202848913 0.05173710266518661 0.0024321134726618234
0.024658461327409103 0.0514044064148813 0.0024805269426019993
0.02805480758537418 0.0510243307441236 0.0025292277457450566
0.03142879036832704 0.050597217018511234 0.0025781721413834107
0.03477737932800272 0.05012344885094937 0.00262731617002647
0.03809756692364099 0.049603451757108036 0.002676615692882927
0.041386371123214104 0.04903769277324453 0.002726026431504087
0.04464083808174387 0.048426680036734 0.0027755040075526315
0.047858044794302425 0.04777096232968501 0.002825003982661094
0.05103510172131392 0.04707112858605003 0.002874481898344255
0.05416915538379942 0.046327807362673376 0.0029238933159296044
0.05725739092623378 0.0455416662747518 0.0029731938564700115
0.06029703464471278 0.04471341139621487 0.003022339240602746
0.06328535647815998 0.04384378662556342 0.0030712853283190655
0.06621967246033553 0.042933573017735926 0.0031199881586086364
0.06909734713044505 0.04198358808260267 0.003168403988943188
0.07191579590018307 0.04099468505071789 0.0032164893345639385
0.07467248737508533 0.03996775210698935 0.003264201007537503
0.07736494562810496 0.03890371159295361 0.003311496155545208
0.07999075242337045 0.03780351917837335 0.0033583323003709723
0.08254754938812832 0.03666816300290106 0.0034046673760531904
0.08503304013091942 0.03549866278857976 0.0034504597666663414
0.0874449923040868 0.03429606892397785 0.003495668343698405
0.08978123960876257 0.033061461520781016 0.0035402525029905054
0.09203968374053272 0.031795949443687986 0.003584172201205597
0.09421829627403276 0.03050066931448194 0.0036273879917934626
0.0963151204847814 0.029176784491171674 0.0036698610604196935
0.09832827310661585 0.02782548402311976 0.0037115532598268495
0.1002559460231505 0.0264479815830958 0.003752427144096482
0.10209640789173954 0.025045514377214233 0.0037924460022812495
0.10384800569848557 0.02361934203373563 0.0038315738913769137
0.10550916624289637 0.022170745471729404 0.00386977566860461
0.10707839755085793 0.02070102575061425 0.0039070170229743946
0.10855429021465314 0.01921150290160948 0.003943264506101714
0.10993551865882398 0.01770351474214673 0.003978485562249129
0.11122084233073914 0.016178415674307042 0.004012648557566306
0.11240910681479857 0.014637575468362344 0.00404572280850201
0.1134992448692736 0.013082378032514037 0.004077678609362589
0.11449027738485207 0.0115142201699335 0.004108487258992192
0.11538131426402684 0.009934510324220991 0.004138121086550759
0.11617155522053854 0.0083446673144097 0.0041665534763666336
0.11686029049815375 0.00674611906065105 0.004193758891841471
0.11744690150813394 0.005140301301725837 0.004219712898385981
0.11793086138482191 0.0035286563055330713 0.004244392185365886
