ply
format ascii 1.0
comment VCGLIB generated
element vertex 754
property float x
property float y
property float z
element face 0
property list uchar int vertex_indices
end_header
0.014077766602179487 0.032083514678447944 0.0346747188299889
0.016541982106815675 0.03195615031553022 0.0349230286852728
0.018997048290995928 0.03180057671015152 0.03513538989960246
0.021440760132931405 0.031616933591005016 0.03531161174039896
0.02387092280875468 0.03140538589746454 0.035451535933722016
0.026285353663804495 0.031166123631443957 0.03555503680642398
0.028681884172980666 0.030899361686746604 0.035622021399023374
0.031058361888408458 0.030605339656058137 0.035652429549196604
0.033412652372663366 0.030284321615755914 0.03564623394581288
0.03574264111581951 0.02993659588872833 0.03560344015346371
0.038046235434600416 0.0295624747854172 0.035524086607465075
0.04032136635192578 0.029162294323315564 0.03540824457933669
0.04256599045516688 0.028736413925173045 0.03525601811278937
0.044778091731440886 0.02828521609617968 0.03506754393027799
0.046955683378296344 0.02780910608041826 0.034842991310203984
0.049096809588162975 0.027308511496893693 0.03458256193487766
0.051199547304963525 0.026783881955466268 0.03428648970937692
0.053262007951309955 0.02623568865303377 0.033955040551465
0.055282339124732106 0.02566442395032531 0.03358851215275602
0.05725872626141632 0.02507060092968657 0.03318723371134268
0.05918939426595877 0.02445475293425417 0.032751565636126585
0.0610726091056704 0.023817433088932565 0.032281899223116244
0.06290667936800143 0.023159213803603987 0.031778656303984
0.0646899577796861 0.022480686259017595 0.031242288867197196
0.06642084268624417 0.02178245987581948 0.03067327865206393
0.0680977794905093 0.021065161767200486 0.030072136716058136
0.06971926204889334 0.02032943617565345 0.02943940297581247
0.07128383402413152 0.019575943894345763 0.028775645722191254
0.07279009019329422 0.018805361673626855 0.028081461109879108
0.07423667770989044 0.018018381613203738 0.0273574726219436
0.07562229731892892 0.017215710540530522 0.02660433050985294
0.07694570452384639 0.016398069375970124 0.025822711209451475
0.07820571070425397 0.015566192485298485 0.02501331673341775
0.07940118418349883 0.01472082702013271 0.02417687404075066
0.08053105124508132 0.013862732246875543 0.023314134383849945
0.08159429709701523 0.012992678864779075 0.022425872633777696
0.08258996678326493 0.012111448313739831 0.0215128865843065
0.08351716604144076 0.011219832072447316 0.02057599623537977
0.08437506210598227 0.010318630947516005 0.019616043056627258
0.08516288445610792 0.009408654354239649 0.018633889231597874
0.08587992550785971 0.008490719589613529 0.017630416883387998
0.08652554124962085 0.007565651098277754 0.016606527282361144
0.08709915182053586 0.006634279732041042 0.015563140036670533
0.0876002420313136 0.005697442003649659 0.014501192266311429
-0.07502375807102875 0.0008059156966936203 -0.024824616648068287
-0.07456844105152323 0.0017186975973075714 -0.02592734281956583
-0.07404044237392422 0.0026304280740613154 -0.027011364769340386
-0.0734402362611248 0.0035402882547062187 -0.028075708881269423
-0.07276836178924644 0.004447460946803198 -0.029119419212913257
-0.07202542240346686 0.005351131371685516 -0.030141558354096418
-0.0712120853760348 0.00625048789625357 -0.031141208268844138
-0.07032908120695823 0.007144722761944515 -0.03211747111991786
-0.06937720296790463 0.008033032810221972 -0.03306947007520932
-0.06835730558990233 0.008914620203934218 -0.0339963500952687
-0.06727030509548272 0.009788693143892928 -0.034897278701259755
-0.06611717777595329 0.01065446658002895 -0.035771446722652096
-0.06489895931453962 0.011511162916486344 -0.03661806902397902
-0.06361674385618508 0.012358012710021389 -0.03743638521000829
-0.0622716830248426 0.01319425536107931 -0.03822566030869228
-0.06086498488914164 0.014019139796928055 -0.03898518543128448
-0.05939791287735944 0.01483192514623548 -0.03971427840902896
-0.057871784642670725 0.015631881404484238 -0.040412284405851526
-0.056287970879695386 0.016418290089626492 -0.0410785765065017
-0.054647894093406715 0.017190444887389817 -0.041712556279617785
-0.05295302732150632 0.01794765228565447 -0.04231365431520896
-0.05120489281141271 0.018689232197332557 -0.0428813307360718
-0.04940506065305235 0.019414518571189296 -0.04341507568268194
-0.04755514736868078 0.020122859990058084 -0.04391440977112517
-0.045656814461000325 0.020813620255911925 -0.04437888452365697
-0.04371176692087883 0.02148617896126572 -0.044808082771503534
-0.04172175169600917 0.022139932046396294 -0.045201619029542554
-0.03968855612188528 0.02277429234187965 -0.04555913984252739
-0.03761400631650382 0.02338869009595816 -0.045880324102543446
-0.035499965540233255 0.02398257348626407 -0.046164883337411776
-0.033348332522323415 0.024555409115439675 -0.04641256196978091
-0.03116103975555867 0.02510668249020901 -0.04662313754667399
-0.028940051760586314 0.025635898483470906 -0.04679642093928536
-0.026687363321479095 0.02614258177899818 -0.046932256512846854
-0.024404997694116467 0.02662627729834371 -0.0470305222664115
-0.022095004788994125 0.0270865506095699 -0.04709112994242882
-0.019759459330093286 0.027522988317434435 -0.047114025106013466
-0.017400458991464012 0.02793519843468195 -0.04709918719383607
-0.015020122513195688 0.028322810734107987 -0.04704662953259223
-0.012620587798467173 0.0286854770810792 -0.04695639932703305
-0.010204009993385367 0.029022871746211067 -0.04682857761756817
-0.00777255955133722 0.029334691697922254 -0.04666327920747921
-0.005328420283593388 0.029620656874602958 -0.04646065255980889
-0.0028737873979144896 0.029880510436152703 -0.046220879664018895
-0.00041086552692158 0.03011401899466169 -0.04594417587253552
0.0020581332519982367 0.030320972824028555 -0.045630789707330685
0.004530991403472935 0.030501186048326228 -0.04528100263671148
0.007005487925828555 0.03065449680874666 -0.044895128822518886
0.009479400345885609 0.03078076740897463 -0.044473514837962816
0.011950506715077061 0.030879884438859903 -0.044016539356346855
0.014416587605095156 0.030951758876276745 -0.04352461281096213
0.016875428101274587 0.030996326167079282 -0.04299817702645599
0.019324819791921917 0.03101354628308094 -0.04243770482200653
0.021762562751804118 0.0310034037580058 -0.0418436995866591
0.02418646751801516 0.030965907701379674 -0.04121669482720677
0.026594357056445722 0.030901091790348386 -0.04055725368902023
0.02898406871709006 0.03080901423943054 -0.039865968450257756
0.03135345617643363 0.030689757748232103 -0.03914345998990978
0.033700391365177246 0.030543429427169585 -0.038390377230155266
0.03602276637956599 0.030370160701268654 -0.037607396553531125
0.03831849537460652 0.03017010719212452 -0.03679522119543827
0.04058551643747223 0.029943448578130156 -0.035954580612529416
0.0428217934394137 0.029690388433097827 -0.03508622982754646
0.04502531786451104 0.02941115404341894 -0.034190948751195514
0.04719411061362598 0.02910599620392642 -0.0332695414816688
0.049326223781932924 0.028775188992642843 -0.032322835582442526
0.05141974240843299 0.0284190295246169 -0.03135168133899939
0.0534727861958794 0.028037837685068925 -0.030356950995143184
0.05548351119956958 0.027631955842085516 -0.029339537969591656
0.05745011148348717 0.02720174853912104 -0.028300356053550954
0.05937082074230654 0.026747602167582308 -0.02724033858999251
0.06124391388780274 0.026269924619790542 -0.026160437635369543
0.06306770859824244 0.025769144922632145 -0.02506162310452594
0.06484056682936408 0.025245712852227497 -0.023944881899565604
0.06656089628558984 0.024700098529963844 -0.02281121702346471
0.06822715185014883 0.0241327920002549 -0.021661646679222886
0.06983783697282606 0.02354430279040671 -0.020497203355362537
0.07139150501409168 0.022935159452984813 -0.01931893289859751
0.07288676054440262 0.022305909091093874 -0.018127893574504103
0.07432226059750993 0.021657116866996142 -0.016925155117038168
0.07569671587664625 0.02098936549451 -0.015711797767751647
0.07700889191250974 0.02030325471564458 -0.014488911305571943
0.07825761017200486 0.019599400761940496 -0.013257594068015043
0.07944174911674373 0.018878435801000414 -0.012018951964711942
0.08056024521035772 0.01814100736870674 -0.010774097484134049
0.08161209387371453 0.017387777787636078 -0.009524148694409703
0.08259635038718245 0.016619423572193228 -0.008270228239129599
0.08351213073913205 0.01583663482099853 -0.007013462329042381
0.08435861241991241 0.015040114597074718 -0.005754979730546752
0.08513503516058994 0.014230578296389677 -0.004495910751887951
0.08584070161578483 0.013408753005322304 -0.0032373862279694928
0.08647497798999317 0.012575376847628755 -0.0019805365046920375
0.08703729460683136 0.011731198321495278 -0.000726490423731181
0.08752714642069195 0.010876975627273388 0.0005236256913334417
0.08794409347035116 0.010013475986500892 0.001768689046627683
0.0882877612741208 0.00914147495282064 0.003007581386421961
0.08855784116618955 0.008261755715415715 0.004239189997494558
0.08875409057385185 0.007375108395586704 0.005462408708516917
0.08887633323537482 0.00648232933710304 0.006676138883563136
0.0889244593583081 0.0055842203909654015 0.00787929040885179
-0.0739268872472138 -0.00031837886755836935 -0.030159080020195725
-0.07309637268115433 0.00020982487403032506 -0.03308652203420501
-0.07219449859766394 0.0007383323883123128 -0.03598882979773678
-0.07122207501645514 0.0012666689953819937 -0.038863396598231646
-0.07017997532138966 0.001794360168834352 -0.041707640638722364
-0.06906913547604697 0.002320931961961666 -0.04451900735667924
-0.06789055318308733 0.0028459114334295145 -0.04729497171839464
-0.06664528698816323 0.003368827072049831 -0.050033040486846245
-0.065334455329185 0.0038892092202694644 -0.05273075446100205
-0.06395923553179385 0.004406590495993895 -0.05538569068455584
-0.06252086275194493 0.004920506212367242 -0.05799546462210952
-0.061020628866549985 0.005430494795131524 -0.06055773230084744
-0.05945988131317586 0.005936098197190379 -0.06307019241577957
-0.057840021879841184 0.006436862310004803 -0.06553058839666245
-0.05616250544599833 0.0069323373714515035 -0.06793671043474142
-0.05442883867583072 0.0074220783697774885 -0.07028639746749411
-0.05264057866504008 0.007905645443288131 -0.0725775391195923
-0.05079933154233827 0.008382604275409678 -0.07480807759833913
-0.048906751026900105 0.008852526484771393 -0.0769760095418789
-0.046964536943072684 0.009314990009957022 -0.07907938781852004
-0.04497443369367545 0.009769579488579937 -0.08111632327555449
-0.042938228693261665 0.010215886630341574 -0.08308498643600355
-0.040857750762749244 0.010653510583738039 -0.08498360914176555
-0.038734868486862147 0.011082058296085532 -0.08681048614169003
-0.036571488535857795 0.011501144866541321 -0.08856397662315192
-0.03436955395304815 0.011910393891803029 -0.09024250568575017
-0.03213104240965201 0.012309437804175913 -0.09184456575580704
-0.029857964428546335 0.012697918201704388 -0.0933687179403981
-0.027552361578511788 0.013075486170071357 -0.09481359331969619
-0.025216304640594333 0.013441802595976177 -0.09617789417646903
-0.022851891748229738 0.013796538471709831 -0.09746039516162622
-0.02046124650280157 0.014139375190653766 -0.09865994439476847
-0.01804651606632509 0.014470004833436943 -0.09977546449875094
-0.015609869232970065 0.014788130444494136 -0.10080595356733132
-0.013153494481154614 0.015093466298777086 -0.1017504860650337
-0.010679598007959853 0.015385738158378907 -0.10260821365841952
-0.00819040174763009 0.01566468351884133 -0.10337836597801993
-0.005688141375938993 0.01593005184492353 -0.10406025131024436
-0.0031750643022136387 0.016181604795620745 -0.10465325721864413
-0.0006534276508201259 0.01641911643823066 -0.10515685109397338
0.0018745037660765317 0.01664237345127526 -0.10557058063255285
0.004406459482657175 0.016851175316095833 -0.10589407424250734
0.006940165418671174 0.01704533449694918 -0.10612704137751139
0.009473345921905378 0.017224676609443115 -0.10626927279774405
0.012003725812064998 0.017389040577160137 -0.10632064075781798
0.014529032424230485 0.01753827877632843 -0.10628109912151415
0.01704699765005544 0.01767225716841047 -0.1061506834032192
0.019555359974871837 0.01779085542048989 -0.10592951073602802
0.022051866508873214 0.017893967013348753 -0.10561777976654065
0.024534275010551394 0.017981499337137923 -0.10521577047644733
0.02700035590056949 0.01805337377455476 -0.10472384393106259
0.029447894264262194 0.01810952577145341 -0.10414244195503382
0.0318746918409652 0.018149904894824175 -0.10347208673551567
0.034278568998386626 0.01817447487809004 -0.10271338035316682
0.036657366690247405 0.018183213653679548 -0.10186700424139025
0.03900894839543231 0.01817611337284683 -0.10093371857430268
0.04133120203690994 0.018153180412720956 -0.09991436158398291
0.0436220418786982 0.018114435370578323 -0.09880984880761226
0.045879410399171636 0.018059913045343164 -0.0976211722651834
0.04810128013902789 0.017989662406332846 -0.0963493995685158
0.05028565552225357 0.017903746549275984 -0.0949956729623786
0.052430574648454284 0.017802242639642914 -0.09356120829858133
0.054534111054938716 0.017685241843339403 -0.09204729394395474
0.05659437544697423 0.017552849244825836 -0.09045528962320197
0.058609517394660256 0.017405183752735424 -0.08878662519765951
0.06057772699489477 0.01724237799307622 -0.08704279938106471
0.062497236496942034 0.017064578190112853 -0.08522537839348386
0.06436632189014062 0.01687194403503496 -0.08333599455460876
0.06618330445232669 0.016664648542530275 -0.08137634481768613
0.06794655225758085 0.0164428778953912 -0.07934818924539626
0.06965448164194546 0.016206831277294415 -0.07725334942904975
0.07130555862579477 0.015956720693903737 -0.07509370685252227
0.07289830029158138 0.01569277078245688 -0.07287120120239665
0.07443127611572123 0.015415218610007117 -0.07058782862583009
0.07590310925342052 0.015124313460501153 -0.06824563993771135
0.07731247777529135 0.014820316610884296 -0.06584673877871783
0.07865811585464469 0.014503501096434158 -0.06339327972592737
0.07993881490439478 0.014174151465533556 -0.0608874663576811
0.08115342466255365 0.013832563524102892 -0.05833154927443583
0.0823008542253408 0.013479044069921607 -0.055727824077383706
0.08338007302698028 0.013113910617077205 -0.05307862930665388
0.08439011176530503 0.01273749111078948 -0.05038634434094916
0.08533006327233732 0.012350123632865933 -0.04765338726050264
0.08619908332906308 0.011952156098053068 -0.04488221267527527
0.08699639142366865 0.011543945941556173 -0.04207530952034367
0.0877212714525588 0.01112585979800827 -0.03923519882045883
0.08837307236352634 0.010698273172176639 -0.03636443142578377
0.08895120874049581 0.010261570101702564 -0.033465585720842926
0.08945516132931569 0.009816142812177296 -0.03054126530874208
0.08988447750412773 0.009362391364863991 -0.027594096672737718
0.09023877167389331 0.008900723297381981 -0.02462672681725664
0.0905177256287128 0.008431553257676246 -0.021641820890484775
0.09072108882562636 0.007955302631600596 -0.018642059790659568
0.09084867861363942 0.007472399164449332 -0.01563013775821708
0.09090038039777106 0.006983276576777041 -0.012608759955955139
0.09087614774197757 0.006488374174851796 -0.00958064003938714
0.0907760024108592 0.005988136456091491 -0.006548497719467668
0.09060003435011213 0.005483012709837701 -0.0035150563198794744
0.09034840160574371 0.00497345661382579 -0.00048304033107605254
0.09002133018212305 0.004459925826713411 0.0025448270367243514
-0.07347633030000761 -0.0020243040732005834 -0.032168521210579656
-0.07249169743897277 -0.0020796320819918748 -0.03578331618193559
-0.07143624815058447 -0.0021326000385055647 -0.039370554772651466
-0.07031093038838174 -0.0021831603694831515 -0.04292701509840285
-0.06911675485838997 -0.00223126766407902 -0.04644950291841524
-0.06785479411135352 -0.0022768787146462788 -0.04993485450437695
-0.06652618157942256 -0.002319952555543772 -0.053379939481946796
-0.06513211055815901 -0.002360450499929444 -0.056781663642305115
-0.0636738331347762 -0.002398336174506983 -0.060136971721222544
-0.062152659063574624 -0.0024335755521945703 -0.06344285014315072
-0.060569954589583926 -0.002466136982686347 -0.06669632972787014
-0.058927141221467715 -0.002495991220879199 -0.06989448835726432
-0.057225694454793107 -0.002523111453139291 -0.07303445359982515
-0.055467142446811855 -0.002547473321384776 -0.07611340529053195
-0.05365306464394362 -0.0025690549449630504 -0.07912857806378744
-0.05178509036319322 -0.0025878369403028946 -0.08207726383713544
-0.04986489732877707 -0.002603802438323861 -0.0849568142435296
-0.04789421016527228 -0.00261693709958727 -0.0877646430099688
-0.04587479884864227 -0.0026272291271751957 -0.09049822828036246
-0.04380847711652978 -0.0026346692772858914 -0.09315511488053982
-0.0416971008392456 -0.0026392508675361233 -0.09573291652336872
-0.0395425663529153 -0.0026409697829629657 -0.09822931795200342
-0.037346808756281956 -0.0026398244797196596 -0.10064207701933629
-0.03511180017269399 -0.002635815986462225 -0.10296902670178605
-0.03283954797883911 -0.0026289479034255665 -0.10520807704561361
-0.030532093001815818 -0.0026192263991899217 -0.10735721704401752
-0.028191507686161004 -0.0026066602051405367 -0.10941451644332298
-0.025819894232480472 -0.0025912606076255603 -0.11137812747664258
-0.02341938270935393 -0.0025730414378191888 -0.11324628652345105
-0.020992129140210425 -0.0025520190592991793 -0.11501731569358405
-0.018540313566892196 -0.0025282123533498665 -0.11668962433423798
-0.016066138091646504 -0.0025016427020039134 -0.11826171045861752
-0.013571824899303867 -0.0024723339688380013 -0.11973216209494754
-0.01105961426141899 -0.0024403124775397144 -0.12109965855463785
-0.008531762524167093 -0.0024056069882648803 -0.12236297161846194
-0.005990540081802997 -0.002368248671806587 -0.12352096663968405
-0.0034382293375025226 -0.0023282710815990823 -0.12457260356314416
-0.0008771226534184202 -0.002285710123581701 -0.1255169378593851
0.0016904797082086054 -0.0022406040239498874 -0.1263531213729834
0.0042622716510341595 -0.00219299329482227 -0.1270804030843214
0.006835943315834565 -0.0021429206978546404 -0.12769812978411677
0.009409183155110704 -0.002090431205833494 -0.12820574666010362
0.011979680009208273 -0.0020355719622836537 -0.128602797795338
0.014545125182089676 -0.0019783922391262295 -0.12888892657768047
0.01710321451489325 -0.0019189433924249604 -0.1290638760200878
0.019651650455417315 -0.0018572788162606844 -0.12912748899142643
0.022188144121670625 -0.0017934538947753527 -0.1290797083576001
0.024710417357635475 -0.0017275259524286686 -0.12892057703286475
0.02721620477939734 -0.0016595542025120312 -0.12865023794128513
0.02970325580980323 -0.001589599693966019 -0.12826893388836738
0.032169336699821326 -0.0015177252565491788 -0.12777700734298264
0.03461223253478632 -0.001443995444407378 -0.1271749001297783
0.037029749223728835 -0.0013684764780943872 -0.1264631530323524
0.039419715470001816 -0.0012912361850957806 -0.12564240530754772
0.041779984721434245 -0.0012123439389095665 -0.12471339411130254
0.04410843709826056 -0.0011318705967382652 -0.1236769538365725
0.04640298129709423 -0.0010498884358483914 -0.12253401536391934
0.04866155646923529 -0.0009664710886545117 -0.12128560522543892
0.05088213407162517 -0.0008816934765861642 -0.11993284468277968
0.05306271968878592 -0.0007956317427970537 -0.11847694872007972
0.05520135482410785 -0.0007083631837769501 -0.11691922495272661
0.05729611865887652 -0.0006199661799277179 -0.1152610724529206
0.05934512977745929 -0.0005305201251658276 -0.1135039804930955
0.0613465478571018 -0.0004401053556145774 -0.1116495272083262
0.0632985753208171 -0.00034880307745006943 -0.10969937817892404
0.06519945895188228 -0.00025669529396574577 -0.10765528493449295
0.06704749146849309 -0.00016386473192099712 -0.10551908338079038
0.06884101305716184 -7.03947672399828e-05 -0.10329269215080537
0.07057841286348174 2.3630649872593092e-05 -0.10097811088153519
0.07225813043891839 0.00011812707033149664 -0.09857741841800803
0.07387865714232937 0.00021300962201905725 -0.09609277094616477
0.07543853749495262 0.0003081930860131928 -0.09352640005627713
0.07693637048764726 0.0004035919731269312 -0.09088061073864113
0.07837081083921224 0.0004991206006906702 -0.08815777931334602
0.07974057020465285 0.0005946931695082004 -0.0853603512959787
0.08104441833231003 0.0006902238409174083 -0.08249083920117953
0.08228118416881286 0.0007856268138864021 -0.0795518202860234
0.08344975691086207 0.0008808164020758576 -0.07654593423525184
0.08454908700290002 0.0009757071107983511 -0.0734758807904357
0.08557818707977065 0.0010702137138055442 -0.07034441732519794
0.08653613285352318 0.0011642513298342943 -0.06715435636867366
0.08742206394356286 0.0012577354988428883 -0.06390856307943271
0.0882351846494033 0.0013505822578689856 -0.06060995267213231
0.0889747646653261 0.0014427082164410788 -0.05726148779921255
0.08964013973630615 0.0015340306314757903 -0.053866175889985
0.09023071225461352 0.0016244674815937168 -0.05042706644950485
0.09074595179655567 0.001713937540787056 -0.04694724831965327
0.09118539559887856 0.0018023604513728929 -0.0434298469048885
0.09154864897439796 0.0018896567961665758 -0.03987802136515895
0.09183538566648873 0.0019757481698104012 -0.03629496177849833
0.09204534814211253 0.0020605572491935167 -0.03268388627585151
0.0921783478231216 0.002144007862899793 -0.02904803815070528
0.09223426525563058 0.0022260250596213204 -0.02539068294611843
0.0922130502173042 0.002306535175476041 -0.021715105521769244
0.0921147217624645 0.0023854659001690958 -0.018024607103652848
0.09193936820497725 0.002462746341938429 -0.014322502319080008
0.0916871470389326 0.002538307091226345 -0.010612116219638866
0.0913582847971916 0.0026120802830198243 -0.006896781294794157
0.0909530768479253 0.0026839996578035866 -0.0031798344788066413
0.09047188712932924 0.002754000621071197 0.0005353858463404224
-0.07347633030000761 -0.0020243040732005843 -0.032168521210579656
-0.0734761821675642 -0.0022042348039967336 -0.032142974482963486
-0.07348466224091808 -0.0023827033499298194 -0.032074387265021986
-0.07350173637380686 -0.0025589910811547305 -0.031963035733274366
-0.07352733581472357 -0.002732388149197481 -0.03180936826103815
-0.07356135748375482 -0.002902196345264476 -0.03161400361298806
-0.07360366438764718 -0.0030677319116829 -0.03137772845360905
-0.07365408617143059 -0.003228328295151531 -0.031101494179576097
-0.07371241980437783 -0.0033833388307156352 -0.03078641308881557
-0.07377843039753751 -0.003532139345658498 -0.030433753901674056
-0.07385185214954902 -0.0036741306728246587 -0.0300449366522293
-0.07393238941693073 -0.003808741063254574 -0.029621526970314192
-0.07401971790453205 -0.00393542848841588 -0.029165229777278007
-0.07411348597135543 -0.0040536828227609924 -0.028677882420869848
-0.07421331604649065 -0.00416302789782263 -0.028161447276887755
-0.07431880614945953 -0.004263023419576182 -0.027618003847383964
-0.07442953150884948 -0.004353266741348349 -0.027049740387244135
-0.07454504627271809 -0.004433394485133168 -0.0264589450928572
-0.07466488530388145 -0.004503084004787005 -0.02584799688835613
-0.0747885660528575 -0.004562054685210697 -0.025219355846530088
-0.0749155905009225 -0.004610069072287512 -0.024575553282979584
-0.07504544716545655 -0.004646933829027072 -0.023919181563401913
-0.07517761315950368 -0.00467250051406517 -0.023252883665049517
-0.07531155629725303 -0.004686666179384761 -0.022579342534393372
-0.07544673723696328 -0.0046893737848512865 -0.021901270283844476
-0.07558261165270147 -0.004680612427893166 -0.021221397271034427
-0.07571863242615147 -0.004660417387402601 -0.020542461104628852
-0.07585425184966627 -0.004628869981679936 -0.019867195620943585
-0.07598892383169341 -0.004586097240993556 -0.019198319875750686
-0.0761221060956929 -0.004532271396073831 -0.018538527195600514
-0.07625326236369348 -0.004467609184600756 -0.01789047433274632
-0.07638186451569468 -0.0043923709784778105 -0.0172567707673406
-0.07650739471621971 -0.004306859735406192 -0.01663996819997951
-0.0766293474994562 -0.004211419778981094 -0.016042550276905196
-0.0767472318045885 -0.0041064354122221005 -0.015466922589238957
-0.07686057295312639 -0.003992329370120569 -0.0149154029865148
-0.07696891456026773 -0.0038695611174350314 -0.014390212243517502
-0.07707182037259908 -0.0037386249985887593 -0.013893465118006303
-0.07716887602473416 -0.0036000482471192593 -0.01342716183533184
-0.07725969070781696 -0.003454388862694898 -0.012993180034234603
-0.07734389874317124 -0.0033022333642471822 -0.012593267206256437
-0.0774211610547593 -0.0031441944282660232 -0.012229033659208872
-0.07749116653452164 -0.0029809084217677618 -0.01190194603303191
-0.07755363329509923 -0.0028130328398697853 -0.01161332139415262
-0.07760830980489451 -0.0026412436582897597 -0.011364321932123504
-0.07765497590090023 -0.002466232611429983 -0.01115595027989534
-0.07769344367521831 -0.0022887044070071037 -0.010989045476568185
-0.07772355823169853 -0.002109373888442858 -0.010864279588877021
-0.0777451983096507 -0.0019289631564419147 -0.010782155005016236
-0.07775827677211862 -0.0017481986613472 -0.01074300241169968
-0.07776274095674988 -0.0015678082779807551 -0.010746979462601974
-0.07775857288784861 -0.0013885183747487377 -0.010794070143542809
-0.07774578934875716 -0.0012110508888122072 -0.010884084836970401
-0.07772444181427558 -0.001036120419100988 -0.011016661085484438
-0.07769461624339075 -0.000864431348875986 -0.011191265051324121
-0.07765643273314989 -0.0006966750094264122 -0.01140719366594439
-0.07761004503507207 -0.0005335268963226733 -0.01166357746102483
-0.07755563993604526 -0.00037564394943412935 -0.011959384069511716
-0.07749343650620125 -0.00022366190766409753 -0.01229342238259577
-0.07742368521679771 -7.81927490536721e-05 -0.01266434734588694
-0.07734666693165881 6.0177773437857613e-05 -0.013070665375473717
-0.07726269177623568 0.0001908924905534295 -0.013510740372058358
-0.07717209788884069 0.00031342506026216634 -0.013982800308951354
-0.07707525005908382 0.0004272820871529565 -0.014484944367397449
-0.07697253825899368 0.0005320051091636398 -0.015015150590501897
-0.07686437607273774 0.0006271724436459165 -0.01557128402493723
-0.07675119903126489 0.0007124008853325457 -0.016151105317646824
-0.07663346285857599 0.0007873472493697001 -0.01675227973292924
-0.07651164163668422 0.0008517097532012561 -0.017372386553594896
-0.07638622589665411 0.0009052292317406289 -0.018008928828339807
-0.07625772064340604 0.0009476901809371066 -0.018659343426087226
-0.07612664332223971 0.0009789216255346022 -0.01932101135681178
-0.07599352173526455 0.0009987978075286646 -0.019991268317288022
-0.07585889191612687 0.0010072386925495795 -0.020667415419299135
-0.07572329597159155 0.0010042102921325254 -0.021346730057107237
-0.07558727989866955 0.0009897248005771263 -0.02202647687042572
-0.07545139138608045 0.0009638405458453113 -0.02270391875874976
-0.07531617760890345 0.0009266617546951996 -0.023376327902693977
-0.07518218302529642 0.0008783381329967302 -0.02404099674795833
-0.07504994718415495 0.0008190642629189618 -0.024695248907693645
-0.07492000255253951 0.0007490788194163536 -0.025336449939366908
-0.07479287237161845 0.0006686636091689647 -0.02596201795273148
-0.07466906854976059 0.0005781424358464148 -0.02656943400618786
-0.07454908960126072 0.000477879796264789 -0.027156252249672504
-0.07443341863899865 0.0003682794126866093 -0.02772010977323274
-0.07432252142911402 0.0002497826071737705 -0.02825873612163119
-0.07421684451553061 0.00012286652453936692 -0.028769962436667657
-0.0741168134218814 -1.1957788946075076e-05 -0.02925173019040564
-0.07402283093807513 -0.00015414744335755085 -0.029702099474137766
-0.07393527549840358 -0.0003031298911416998 -0.03011925680971348
-0.07385449965772017 -0.0004583052325637174 -0.03050152245177548
-0.07378082867182599 -0.0006190486312918698 -0.030847357151501484
-0.07371455918777951 -0.000784712830392859 -0.03115536835461588
-0.07365595804940361 -0.0009546307586070545 -0.03142431580871438
-0.0736052612227996 -0.0011281182164090075 -0.031653116557322634
-0.07356267284619511 -0.0013044766310374685 -0.03184084930057981
-0.07352836440795141 -0.0014829958694013352 -0.03198675810498791
-0.07350247405604034 -0.0016629570975349641 -0.03209025544728919
-0.07348510604177123 -0.0018436356750888574 -0.032150924580214936
-0.07347633030000761 -0.0020243040732005834 -0.032168521210579656
-0.058927141221467715 -0.002495991220879202 -0.06989448835726432
-0.05892645293235794 -0.00333202929382001 -0.06977578691681743
-0.058965855118709366 -0.004161273406608544 -0.06945710024632784
-0.05904518912182435 -0.004980384485879143 -0.06893971158453913
-0.05916413549167276 -0.0057860642604157415 -0.06822570427298319
-0.059322215273204616 -0.006575068542125933 -0.0673179533670993
-0.059518791934932945 -0.0073442202892414175 -0.06622011405940034
-0.059753073932021485 -0.008090422399143874 -0.06493660696130295
-0.06002411789355635 -0.008810670179304115 -0.06347260030288529
-0.06033083242116769 -0.009502063446118394 -0.06183398912224877
-0.060671982483705804 -0.010161818202924205 -0.060027371528280256
-0.061046194390275636 -0.01078727785017221 -0.05806002213239619
-0.06145196132160519 -0.01137592388261504 -0.055939862756250104
-0.06188764939747491 -0.011925386030438984 -0.05367543053335271
-0.06235150425577667 -0.012433451803504005 -0.05127584353304834
-0.06284165811671079 -0.012898075400260613 -0.04875076404526799
-0.063356137303676 -0.013317385945470678 -0.046110359673897844
-0.06389287019056862 -0.013689695023561679 -0.043365262395427144
-0.06444969554348967 -0.014013503477280309 -0.040526525747731315
-0.06502437122327098 -0.01428750744426963 -0.03760558032137623
-0.06561458321377828 -0.014510603607262562 -0.034614187732664316
-0.06621795493963742 -0.01468189363675113 -0.03156439326375694
-0.06683205683586467 -0.01480068780824234 -0.02846847736057445
-0.06745441613086735 -0.014866507779535253 -0.02533890618377474
-0.06808252680342233 -0.014879088516836225 -0.02218828141192411
-0.06871385967353895 -0.014838379361956436 -0.01902928949898545
-0.0693458725865743 -0.014744544236294545 -0.015874650590445648
-0.06997602064959259 -0.014597960980783068 -0.012737067303779234
-0.07060176647875085 -0.014399219834456306 -0.009629173579491158
-0.0712205904164482 -0.014149121057766063 -0.006563483808697396
-0.07183000067709752 -0.013848671710215274 -0.003552342442088831
-0.0724275433806668 -0.013499081595284792 -0.0006078742831852231
-0.07301081243358769 -0.013101758388981794 0.002258064333969222
-0.07357745921724526 -0.01265830197162531 0.005033933286078403
-0.07412520204503621 -0.01217049798569286 0.007708555128597803
-0.0746518353499154 -0.01164031064566841 0.010271160103358741
-0.07515523856543606 -0.011069874828843926 0.012711429504583283
-0.0756333846645223 -0.01046148747892199 0.015019537228670598
-0.07608434832159176 -0.00981759835703422 0.017186189340448015
-0.07650631366516228 -0.009140800177417792 0.01920266149656777
-0.0768975815897253 -0.008433818167470335 0.02106083407535845
-0.07725657659744423 -0.007699499094220999 0.022753224871675713
-0.077581853142128 -0.006940799801404432 0.024273019225101555
-0.07787210144993548 -0.006160775303294603 0.025614097460176677
-0.07812615279337251 -0.0053625664832406324 0.026771059528173657
-0.07834298419734488 -0.004549387446438031 0.027739246751187212
-0.07852172255831809 -0.0037245125778615413 0.02851476058098592
-0.07866164815999709 -0.0028912633574724646 0.029094478297089936
-0.07876219757136979 -0.0020529949857911946 0.029476065580864276
-0.07882296591544487 -0.0012130828736888978 0.029657985914996056
-0.07884370849954857 -0.00037490905079925346 0.02963950677050734
-0.07882434180061565 0.00045815145272117865 0.029420702556390906
-0.07876494380150738 0.001282744196248247 0.029002454319991426
-0.07866575367700197 0.0020955488358386275 0.028386446199338743
-0.07852717083072235 0.0028932924940830336 0.02757515864171852
-0.07834975328687843 0.003672762938828359 0.026571858415786395
-0.07813421544330093 0.004430821517702856 0.025380585457443636
-0.07788142519481318 0.005164415796361446 0.024006136602441136
-0.07759240043852508 0.005870591849561504 0.022454046271214806
-0.07726830497512073 0.0065465061555772235 0.0207305641837279
-0.07691044382264378 0.007189437046058034 0.01884263019405446
-0.07652025796165039 0.007796795665226407 0.01679784634603638
-0.07609931853288912 0.008366136394286404 0.01460444626253587
-0.07564932051087164 0.008895166699067354 0.012271261991542342
-0.07517207587880861 0.009381756361249858 0.009807688442632185
-0.07466950633239285 0.009823946056003093 0.007223645556983989
-0.07414363554180894 0.010219955241494393 0.004529538363276344
-0.07359658100312778 0.010568189328502748 0.001736215080310059
-0.07303054551189715 0.01086724610126683 -0.0011450765649404573
-0.07244780829326153 0.011115921363712946 -0.004102734627953707
-0.07185071582432688 0.01131321378832761 -0.007124849663596966
-0.07124167238572557 0.011458328948150028 -0.010199252681258285
-0.07062313038042671 0.011550682515649087 -0.01331356414507697
-0.06999758045877513 0.011589902615604082 -0.016455243821965046
-0.06936754148952136 0.011575831322514992 -0.0196116412767
-0.06873555041722625 0.011508525296512702 -0.022770046810762334
-0.06810415204688065 0.011388255555208684 -0.02591774263980598
-0.06747588879687379 0.01121550638240272 -0.029042054103687008
-0.06685329046157187 0.010990973378042945 -0.032130400702846666
-0.06623886402472892 0.0107155606572904 -0.035170346755542765
-0.06563508356474818 0.010390377209966346 -0.038149651471951124
-0.06504438029244136 0.010016732435041684 -0.04105631824350586
-0.06446913276140108 0.009596130868149451 -0.04387864294900777
-0.06391165729040475 0.00913026612335081 -0.04660526108298975
-0.06337419863641662 0.00862101407354901 -0.049225193516569135
-0.06285892095574358 0.008070425297011258 -0.05172789070652477
-0.06236789908974167 0.0074807168204138064 -0.054103275174583985
-0.061903110210162184 0.006854263191657977 -0.05634178208587113
-0.06146642585777883 0.006193586918403859 -0.05843439776312149
-0.061059604406353656 0.00550134831082227 -0.06037269598157847
-0.06068428398228643 0.004780334769464652 -0.062148871898426564
-0.0603419758684579 0.004033449561384812 -0.06375577348013892
-0.0600340584188269 0.0032637001297071986 -0.06518693030119181
-0.059761771508285565 0.002474185983714908 -0.06643657959818479
-0.05952621154012067 0.0016680862182197717 -0.06749968947445477
-0.05932832703118462 0.0008486467124695402 -0.06837197916174803
-0.059168914792552756 1.91670601377889e-05 -0.06904993625736305
-0.05904861672104653 -0.0008170127169751927 -0.06953083086735654
-0.0589679172145414 -0.0016565256180314236 -0.06981272659886276
-0.058927141221467715 -0.002495991220879199 -0.06989448835726432
-0.037346808756281956 -0.0026398244797196653 -0.10064207701933629
-0.037345654441780125 -0.004041925512505314 -0.10044300544875781
-0.0374117349804128 -0.005432632544402103 -0.09990854305489012
-0.03754478428917365 -0.006806345689033964 -0.09904084192915813
-0.037744266625455214 -0.008157533488410957 -0.09784339599774544
-0.03800937874429532 -0.009480755186158308 -0.09632102695278684
-0.03833905313276108 -0.010770682635522041 -0.09447986483711565
-0.03873196230844667 -0.012022121753935421 -0.09232732336074499
-0.03918652416477643 -0.01323003343775624 -0.08987207004847413
-0.039700908341589715 -0.014389553852958651 -0.0871239913388252
-0.04027304359535517 -0.015496014020076138 -0.08409415277484468
-0.04090062613933747 -0.016544958614533943 -0.08079475444706713
-0.04158112892013333 -0.017532163906668646 -0.0772390818680564
-0.042311811793223714 -0.018453654769196772 -0.07344145247633571
-0.04308973255656865 -0.01930572068364938 -0.06941715798511587
-0.04391175879781645 -0.020084930681320314 -0.06518240280796335
-0.04477458050742262 -0.020788147158566285 -0.060754238809346085
-0.04567472340689013 -0.021412538510829283 -0.056150496642793646
-0.04660856293846266 -0.02195559053450879 -0.05138971395314861
-0.04757233885993942 -0.022415116550772274 -0.0464910607320136
-0.048562170385843303 -0.022789266210539085 -0.041474262126960995
-0.049574071813974385 -0.023076532945183137 -0.03635951901532553
-0.050603968574425874 -0.02327576003295301 -0.031167426662401056
-0.05164771363643909 -0.02338614525668223 -0.02591889179157615
-0.052701104207032605 -0.023407244134034614 -0.020635048400337943
-0.05375989865416629 -0.02333897170727777 -0.015337172661123371
-0.054819833586296426 -0.02318160288537793 -0.01004659724968201
-0.05587664101954876 -0.02293577133703853 -0.004784625445920106
-0.05692606556338319 -0.022602466939140028 0.00042755464688874235
-0.05796388155554954 -0.022183031790855054 0.005568955419117292
-0.05898591007733806 -0.02167915480948872 0.010618874264481134
-0.05998803578061009 -0.021092864929804757 0.015556976942127381
-0.060966223458852574 -0.020426522934221283 0.020363379455445724
-0.06191653429553048 -0.01968281194677326 0.025018728117904863
-0.0628351417243108 -0.01886472662911899 0.029504277483517326
-0.0637183468372946 -0.01797556112209454 0.03380196582813455
-0.06456259327921364 -0.017018895781371286 0.03789448787763502
-0.06536448156761782 -0.015998582760627232 0.041765364490155624
-0.0661207827813912 -0.014918730500283812 0.04539900901177947
-0.06682845156247777 -0.013783687184266279 0.048780790038490195
-0.06748463837846332 -0.012598023231401797 0.05189709033167175
-0.06808670099663695 -0.011366512891955822 0.0547353616499223
-0.06863221512332954 -0.010094115023411421 0.05728417527639341
-0.06911898416568868 -0.008785953122900307 0.05953326803819916
-0.0695450480765829 -0.0074472946966882645 0.06147358363259101
-0.06990869124701965 -0.006083530049786482 0.0630973090934927
-0.07020844941429713 -0.004700150581095816 0.06439790625155693
-0.07044311555807353 -0.0033027266714815017 0.06537013806106586
-0.07061174476061183 -0.0018968852538155038 0.0660100896876657
-0.07071365801162999 -0.0004882871553038063 0.06631518427202315
-0.07074844494243582 0.0009173956966668262 0.06628419330592819
-0.0707159654783368 0.0023145031133784914 0.06591724157906317
-0.07061635040267145 0.0036974094363644698 0.06521580667651895
-0.07045000083019093 0.005060546189950244 0.06418271302908095
-0.07021758659191157 0.00639842450353977 0.06282212054024341
-0.06992004353794179 0.007705657213360015 0.061139507835746294
-0.06955856976914393 0.008976980554668192 0.059141650203082895
-0.06913462081280505 0.010207275357074488 0.05683659230980858
-0.06864990376174217 0.011391587657634508 0.054233615810503684
-0.06810637040044205 0.012525148648709537 0.05134320197282666
-0.06750620934591396 0.013603393880271812 0.04817698947314821
-0.06685183723490136 0.014621981639333755 0.04474772753170962
-0.06614588899293875 0.01557681043249384 0.041069224576012385
-0.06539120722443646 0.016464035501202876 0.03715629263915443
-0.06459083076651603 0.017280084303249732 0.033024687717000505
-0.06374798245268565 0.018021670898127905 0.028691046324347956
-0.062866056135627 0.018685809178358194 0.02417281850555318
-0.06194860302134852 0.019269824893489572 0.01948819756936225
-0.06099931736973204 0.019771366418361906 0.01465604683087735
-0.06002202161905216 0.020188414222270502 0.00969582365564489
-0.05902065099436642 0.020519289000903457 0.004627501111711585
-0.057999237661752905 0.020762658438307376 -0.0005285124548708667
-0.056961894492200606 0.020917542571653583 -0.005751455597252758
-0.055912798500529465 0.020983317737202474 -0.01102029736680496
-0.05485617402602606 0.020959719081577323 -0.016313821997326432
-0.05379627572252021 0.020846841628235333 -0.021610714333446447
-0.052737371426395604 0.020645139894841704 -0.026889645659232672
-0.05168372497151909 0.02035542606308747 -0.032129359581402075
-0.05063957902028647 0.019978866708320386 -0.03730875762131454
-0.04960913797991859 0.01951697810215784 -0.04240698417109945
-0.04859655107279724 0.01897162010699614 -0.047403510471828204
-0.04760589562901117 0.01834498868700108 -0.05227821727558063
-0.04664116066838684 0.017639607065735346 -0.0570114758585553
-0.04570623083811349 0.016858315566027723 -0.06158422705901275
-0.04480487077063997 0.016004260172995565 -0.06597805802179278
-0.043940709924828576 0.015080879866273066 -0.07017527634038363
-0.043117227971405214 0.014091892772454102 -0.07415898129799821
-0.04233774078155348 0.013041281193508635 -0.07791313192079612
-0.04160538707507178 0.011933275571458266 -0.08142261156922342
-0.040923115781856416 0.0107723374538793 -0.08467328880738496
-0.04029367416760179 0.009563141528825383 -0.08765207430534885
-0.03971959677153099 0.008310556801508528 -0.09034697354525854
-0.03920319520070096 0.007019626988533659 -0.09274713511902287
-0.038746548821976715 0.005695550208631977 -0.09484289442310634
-0.03835149638915488 0.004343658051671537 -0.09662581257447657
-0.038019628638951156 0.0029693941102264827 -0.09808871039100789
-0.03775228188566492 0.0015782920601510992 -0.09922569729951378
-0.03755053264031332 0.00017595337842028205 -0.10003219505500612
-0.03741519327590124 -0.0012319752120413597 -0.1005049561756719
-0.037346808756281956 -0.0026398244797196596 -0.10064207701933629
-0.011059614261418972 -0.002440312477539721 -0.12109965855463786
-0.011058118245452015 -0.0042574650204463705 -0.12084165759590637
-0.011143760018765922 -0.006059850697624422 -0.12014898304864134
-0.011316194732166291 -0.007840211938092673 -0.11902442406876935
-0.011574728051922008 -0.009591379855503162 -0.11747250885839636
-0.011918318955602143 -0.011306303114716287 -0.1154994864323357
-0.012345583923905848 -0.01297807632503867 -0.11311330145553113
-0.012854802511606273 -0.01459996784579428 -0.11032356225269511
-0.01344392427517627 -0.016165446892265543 -0.10714150211897644
-0.014110577029200804 -0.01766820983285839 -0.10357993408744529
-0.014852076398330347 -0.019102205571601878 -0.09965319933553139
-0.015665436626313006 -0.020461659913775937 -0.09537710943816412
-0.01654738259858111 -0.02174109881655558 -0.09076888270014093
-0.017494363029981676 -0.022935370431049297 -0.08584707482409089
-0.018502564764548292 -0.02403966584697624 -0.08063150419320946
-0.019567928129734385 -0.025049538456450672 -0.075143172069624
-0.020686163283281704 -0.025960921858902468 -0.06940417802972362
-0.021852767486901046 -0.02677014623503706 -0.06343763097696478
-0.023063043237210125 -0.02747395312390245 -0.05726755609047335
-0.024312117180921723 -0.028069508543561432 -0.05091879808412775
-0.025594959738117384 -0.028554414402536615 -0.044416921165664945
-0.02690640535459057 -0.02892671815607841 -0.03778810609863864
-0.028241173301710294 -0.029184920668373592 -0.03105904478172479
-0.02959388894005154 -0.029327982249036117 -0.02425683276986633
-0.03095910536117127 -0.029355326839573342 -0.01740886017003666
-0.03233132532038624 -0.029266844332970294 -0.010542701350946076
-0.0337050233722372 -0.029062891017051694 -0.0036860039107910643
-0.035074668119507504 -0.028744288139836708 0.0031336226498655077
-0.03643474448620748 -0.028312318602662978 0.009888718101808575
-0.037779775924838895 -0.02776872179439574 0.01655208205982201
-0.039104346468518854 -0.027115686587522787 0.023096883509039684
-0.04040312253916688 -0.026355842524337487 0.02949676884397249
-0.04167087442394138 -0.025492249228700064 0.03572596798517629
-0.04290249733344751 -0.02452838408601216 0.04175939814626653
-0.04409303195692231 -0.023468128241013207 0.04757276483344597
-0.04523768443162883 -0.02231575096978031 0.05314265967085699
-0.046331845646049384 -0.021075892488860354 0.058446654657848936
-0.047371109799150886 -0.019753545270755662 0.06346339247862125
-0.04835129214099059 -0.01835403394099935 0.06817267250059596
-0.04926844582322718 -0.016882993837767524 0.07255553211523567
-0.050118877791685945 -0.01534634832036149 0.07659432309377519
-0.050899163656984575 -0.013750284917930341 0.08027278265041007
-0.05160616148334055 -0.012101230414475072 0.08357609892679507
-0.052237024440037604 -0.01040582497045756 0.08649097063417015
-0.052789212264608275 -0.0086708953852181 0.08900566061295546
-0.05326050149157426 -0.006903427607863843 0.09111004309415063
-0.05364899440555716 -0.005110538607317474 0.09279564447223256
-0.053953126682708547 -0.003299447714795172 0.09405567742537421
-0.05417167368968989 -0.0014774475541078913 0.09488506824559406
-0.0543037554148389 0.00034812532316087145 0.0952804772687874
-0.05434884001166582 0.002169919979358952 0.095240312322375
-0.054306745940411544 0.003980600690396888 0.09476473513642009
-0.05417764269904418 0.005772876484119827 0.09385566069239848
-0.053962050140750534 0.007539530498478995 0.0925167495122441
-0.05366083638067081 0.009273449041288125 0.09075339291871909
-0.05327521430030532 0.010967650234551037 0.08857269132645985
-0.05280673666366879 0.012615312128020239 0.08598342565111337
-0.05225728986485768 0.014209800168782713 0.08299602195168905
-0.05162908633220699 0.015744693916262948 0.07962250944849898
-0.050924655619622186 0.017213812895071 0.07587647208573331
-0.0501468342209584 0.018611241481595615 0.0717729938337113
-0.04929875414846085 0.019931352724132555 0.0673285979510568
-0.048383830321256906 0.02116883100063319 0.06256118045136744
-0.04740574681468205 0.02231869342283826 0.05748993804228413
-0.04636844202580878 0.023376309900610355 0.052135290827124856
-0.04527609281491163 0.024337421785672615 0.04651880008033573
-0.04413309768672501 0.025198159019682354 0.04066308142784854
-0.042944059079217174 0.025955055717590048 0.03459171378193761
-0.04171376483119675 0.026605064123535194 0.028329144397261564
-0.04044716890337584 0.02714556688308348 0.02190059043039766
-0.03914937143051861 0.027574387582389292 0.015331937399252296
-0.03782559818499877 0.0278897995118461 0.008649634951216916
-0.03648117953445848 0.028090532618936657 0.001880590359772661
-0.035121528978299295 0.02817577862228622 -0.004947939821602829
-0.033752121349430654 0.02814519426632635 -0.011808459511956432
-0.03237847076905015 0.027998902703463925 -0.01867334381987258
-0.031006108443223556 0.027737492998189905 -0.02551495027916153
-0.02964056039067024 0.0273620177551245 -0.032305730155314086
-0.028287325191436136 0.026873988880549884 -0.03901833937453252
-0.026951851846052668 0.02627537149449722 -0.04562574862866447
-0.025639517834334682 0.02556857601790188 -0.05210135221268753
-0.024355607462167226 0.024756448466689025 -0.05841907515649288
-0.023105290583470904 0.02384225899187206 -0.06455347821958658
-0.02189360178302465 0.022829688711808578 -0.07047986032593301
-0.020725420103969848 0.02172281488963603 -0.07617435802646948
-0.019605449401625598 0.020526094515572066 -0.08161404158879355
-0.018538199402723582 0.01924434636018808 -0.08677700732710197
-0.01752796754633013 0.017882731570920754 -0.09164246580060324
-0.016578821679575903 0.016446732889953027 -0.09619082552525784
-0.01569458367787118 0.014942132577146331 -0.10040377186176985
-0.014878814055562569 0.013374989126921087 -0.10426434076217517
-0.014134797628998278 0.011751612872837814 -0.10775698707807568
-0.01346553028973213 0.010078540578111167 -0.11086764715546499
-0.012873706941125596 0.00836250911437155 -0.1135837954640996
-0.012361710646923173 0.006610428334660877 -0.11589449503338818
-0.011931603035495703 0.0048293532498930244 -0.11779044149171222
-0.0115851159983906 0.0030264556208149727 -0.1192640005318466
-0.011323644716615847 0.0012089950798575876 -0.12030923865162015
-0.0111482420427385 -0.0006157101008420923 -0.12092194704603479
-0.011059614261418972 -0.002440312477539714 -0.12109965855463786
0.01710321451489325 -0.0019189433924249682 -0.1290638760200878
0.017104891105890998 -0.003955433418105737 -0.12877473332751435
0.017008912032578632 -0.005975374159091476 -0.1279984502289629
0.016815663768809174 -0.007970632026943737 -0.12673815254248702
0.01652592445713505 -0.009933172822442509 -0.12499891504205597
0.01614086077550269 -0.011855094086470858 -0.12278774102323095
0.015662023239452198 -0.013728656920428685 -0.12011353410336564
0.015091339958738521 -0.015546317148045961 -0.11698706236988167
0.014431108873513999 -0.017300755693117932 -0.11342091502098112
0.013683988501334374 -0.018984908050841735 -0.10942945167338847
